14.656250000000 12.953125000000 3.557998657227 90 90 90
14.656250000000 12.937500000000 3.519004821777 91 91 91
14.671875000000 12.937500000000 3.480003356934 72 72 72
14.671875000000 12.937500000000 3.441001892090 18 18 18
14.828125000000 13.156250000000 5.125000000000 165 165 165
14.843750000000 13.156250000000 5.083999633789 194 194 194
14.843750000000 13.156250000000 5.044998168945 198 198 198
14.843750000000 13.156250000000 5.006004333496 198 198 198
14.843750000000 13.156250000000 4.967002868652 217 217 217
14.843750000000 13.156250000000 4.928001403809 200 200 200
14.843750000000 13.156250000000 4.888999938965 145 145 145
14.812500000000 13.171875000000 4.582000732422 93 93 93
14.828125000000 13.156250000000 4.541999816895 198 198 198
14.828125000000 13.171875000000 4.503997802734 222 222 222
14.828125000000 13.171875000000 4.465003967285 213 213 213
14.812500000000 13.171875000000 4.428001403809 223 223 223
14.812500000000 13.171875000000 4.389999389648 224 224 224
14.828125000000 13.171875000000 4.349998474121 181 181 181
14.703125000000 12.250000000000 4.311004638672 70 70 70
14.734375000000 12.250000000000 4.342002868652 235 235 235
14.734375000000 12.250000000000 4.375000000000 250 250 250
14.718750000000 12.234375000000 4.411003112793 249 249 249
14.734375000000 12.250000000000 4.444000244141 250 250 250
14.734375000000 12.250000000000 4.478004455566 254 254 254
14.734375000000 12.250000000000 4.512001037598 245 245 245
14.734375000000 12.250000000000 4.547004699707 241 241 241
14.687500000000 12.250000000000 4.588005065918 50 50 50
14.734375000000 12.250000000000 4.859001159668 194 194 194
14.734375000000 12.250000000000 4.892997741699 219 219 219
14.734375000000 12.250000000000 4.929000854492 211 211 211
14.734375000000 12.250000000000 4.963005065918 218 218 218
14.734375000000 12.250000000000 4.999000549316 223 223 223
14.734375000000 12.250000000000 5.034004211426 215 215 215
14.734375000000 12.250000000000 5.069999694824 211 211 211
14.750000000000 12.250000000000 5.099998474121 71 71 71
14.640625000000 12.562500000000 3.343002319336 74 74 74
14.640625000000 12.562500000000 3.376998901367 86 86 86
14.640625000000 12.562500000000 3.411003112793 129 129 129
14.656250000000 12.562500000000 3.444999694824 102 102 102
14.656250000000 12.562500000000 3.480003356934 129 129 129
14.656250000000 12.562500000000 3.513999938965 152 152 152
14.640625000000 12.578125000000 3.547004699707 142 142 142
14.640625000000 12.562500000000 3.581001281738 173 173 173
14.640625000000 12.578125000000 3.616004943848 162 162 162
14.625000000000 12.562500000000 3.650001525879 115 115 115
14.656250000000 12.562500000000 3.683998107910 121 121 121
14.671875000000 12.562500000000 3.717002868652 96 96 96
14.656250000000 12.562500000000 3.750999450684 101 101 101
14.671875000000 12.562500000000 3.785003662109 97 97 97
14.625000000000 12.562500000000 3.819999694824 92 92 92
14.593750000000 12.578125000000 3.855003356934 93 93 93
14.609375000000 12.562500000000 3.888999938965 87 87 87
14.593750000000 12.578125000000 3.924003601074 94 94 94
14.781250000000 12.578125000000 4.521003723145 220 220 220
14.781250000000 12.578125000000 4.555999755859 237 237 237
14.781250000000 12.578125000000 4.589004516602 242 242 242
14.781250000000 12.578125000000 4.624000549316 238 238 238
14.781250000000 12.578125000000 4.658004760742 241 241 241
14.781250000000 12.578125000000 4.693000793457 245 245 245
14.781250000000 12.578125000000 4.725997924805 238 238 238
14.781250000000 12.578125000000 4.762001037598 224 224 224
14.781250000000 12.578125000000 4.795997619629 220 220 220
14.765625000000 12.578125000000 4.832000732422 223 223 223
14.765625000000 12.578125000000 4.867004394531 216 216 216
14.781250000000 12.578125000000 4.899002075195 183 183 183
14.890625000000 12.578125000000 5.151000976563 69 69 69
14.906250000000 12.578125000000 5.183998107910 127 127 127
14.796875000000 12.578125000000 5.247001647949 139 139 139
14.718750000000 12.578125000000 5.307998657227 155 155 155
14.765625000000 12.578125000000 5.332000732422 148 148 148
15.015625000000 12.578125000000 5.291000366211 102 102 102
14.953125000000 12.578125000000 5.346000671387 18 18 18
14.656250000000 12.890625000000 3.326004028320 39 39 39
14.687500000000 12.890625000000 3.361000061035 88 88 88
14.656250000000 12.890625000000 3.394004821777 97 97 97
14.687500000000 12.890625000000 3.428001403809 100 100 100
14.656250000000 12.890625000000 3.461997985840 99 99 99
14.687500000000 12.890625000000 3.496002197266 95 95 95
14.656250000000 12.890625000000 3.529998779297 94 94 94
14.656250000000 12.890625000000 3.564002990723 94 94 94
14.656250000000 12.890625000000 3.597999572754 102 102 102
14.656250000000 12.890625000000 3.632003784180 167 167 167
14.687500000000 12.890625000000 3.665000915527 132 132 132
14.718750000000 12.890625000000 3.698997497559 101 101 101
14.718750000000 12.890625000000 3.732002258301 94 94 94
14.718750000000 12.890625000000 3.765998840332 100 100 100
14.718750000000 12.890625000000 3.800003051758 97 97 97
14.640625000000 12.890625000000 3.835998535156 104 104 104
14.640625000000 12.890625000000 3.870002746582 92 92 92
14.640625000000 12.890625000000 3.903999328613 101 101 101
14.640625000000 12.890625000000 3.938003540039 101 101 101
14.828125000000 12.890625000000 4.463005065918 111 111 111
14.812500000000 12.890625000000 4.499000549316 221 221 221
14.828125000000 12.890625000000 4.530998229980 206 206 206
14.812500000000 12.906250000000 4.567001342773 217 217 217
14.812500000000 12.906250000000 4.600997924805 222 222 222
14.812500000000 12.906250000000 4.634002685547 199 199 199
14.812500000000 12.906250000000 4.667999267578 213 213 213
14.812500000000 12.906250000000 4.703002929688 207 207 207
14.828125000000 12.890625000000 4.733001708984 230 230 230
14.828125000000 12.890625000000 4.767997741699 234 234 234
14.828125000000 12.906250000000 4.804000854492 236 236 236
14.828125000000 12.890625000000 4.836997985840 236 236 236
14.828125000000 12.906250000000 4.873001098633 235 235 235
14.828125000000 12.906250000000 4.906997680664 232 232 232
14.828125000000 12.906250000000 4.941001892090 219 219 219
14.750000000000 12.906250000000 5.277000427246 90 90 90
14.843750000000 12.906250000000 5.290000915527 97 97 97
14.843750000000 13.234375000000 4.309997558594 205 205 205
14.843750000000 13.234375000000 4.343002319336 225 225 225
14.843750000000 13.234375000000 4.376998901367 218 218 218
14.843750000000 13.234375000000 4.409004211426 225 225 225
14.843750000000 13.234375000000 4.443000793457 202 202 202
14.843750000000 13.234375000000 4.475997924805 207 207 207
14.875000000000 13.234375000000 4.509002685547 223 223 223
14.875000000000 13.234375000000 4.542999267578 73 73 73
14.875000000000 13.234375000000 4.916999816895 213 213 213
14.875000000000 13.234375000000 4.948997497559 225 225 225
14.875000000000 13.234375000000 4.985000610352 221 221 221
14.875000000000 13.234375000000 5.017997741699 223 223 223
14.875000000000 13.234375000000 5.053001403809 227 227 227
14.875000000000 13.234375000000 5.088005065918 225 225 225
14.875000000000 13.234375000000 5.122001647949 200 200 200
26.593750000000 17.437500000000 3.670997619629 17 17 17
26.593750000000 17.437500000000 3.709999084473 60 60 60
26.578125000000 17.437500000000 3.749000549316 73 73 73
26.578125000000 17.437500000000 3.788002014160 74 74 74
26.593750000000 17.437500000000 3.827003479004 79 79 79
26.578125000000 17.437500000000 3.866004943848 79 79 79
26.593750000000 17.453125000000 3.904998779297 72 72 72
26.578125000000 17.437500000000 3.944000244141 68 68 68
26.437500000000 17.359375000000 4.320999145508 77 77 77
26.437500000000 17.359375000000 4.359001159668 169 169 169
26.437500000000 17.359375000000 4.397003173828 192 192 192
26.437500000000 17.359375000000 4.436004638672 148 148 148
26.421875000000 17.359375000000 4.472999572754 197 197 197
26.453125000000 17.359375000000 4.513999938965 172 172 172
26.437500000000 17.359375000000 4.551002502441 135 135 135
26.484375000000 17.390625000000 4.831001281738 76 76 76
26.468750000000 17.390625000000 4.866004943848 168 168 168
26.468750000000 17.390625000000 4.905998229980 179 179 179
26.453125000000 17.375000000000 4.942001342773 180 180 180
26.468750000000 17.390625000000 4.984001159668 156 156 156
26.468750000000 17.390625000000 5.024002075195 156 156 156
26.453125000000 17.375000000000 5.059997558594 116 116 116
26.687500000000 17.796875000000 3.333000183105 63 63 63
26.656250000000 17.796875000000 3.374000549316 99 99 99
26.687500000000 17.812500000000 3.412002563477 85 85 85
26.640625000000 17.781250000000 3.455001831055 62 62 62
26.609375000000 17.765625000000 3.495002746582 67 67 67
26.625000000000 17.781250000000 3.534004211426 67 67 67
26.625000000000 17.781250000000 3.572998046875 67 67 67
26.546875000000 17.734375000000 3.614997863770 96 96 96
26.500000000000 17.703125000000 3.654998779297 156 156 156
26.500000000000 17.718750000000 3.693000793457 146 146 146
26.500000000000 17.718750000000 3.732002258301 125 125 125
26.515625000000 17.718750000000 3.770004272461 140 140 140
26.500000000000 17.703125000000 3.807998657227 157 157 157
26.625000000000 17.781250000000 3.847999572754 90 90 90
26.687500000000 17.812500000000 3.888000488281 76 76 76
26.687500000000 17.812500000000 3.927001953125 72 72 72
26.703125000000 17.828125000000 3.967002868652 70 70 70
26.718750000000 17.828125000000 4.007003784180 70 70 70
26.515625000000 17.734375000000 4.194000244141 19 19 19
26.515625000000 17.734375000000 4.233001708984 40 40 40
26.515625000000 17.734375000000 4.271003723145 50 50 50
26.531250000000 17.734375000000 4.311004638672 61 61 61
26.515625000000 17.734375000000 4.348999023438 74 74 74
26.515625000000 17.734375000000 4.388000488281 76 76 76
26.531250000000 17.734375000000 4.428001403809 82 82 82
26.531250000000 17.734375000000 4.466003417969 83 83 83
26.531250000000 17.734375000000 4.506004333496 90 90 90
26.546875000000 17.750000000000 4.545997619629 143 143 143
26.531250000000 17.734375000000 4.583999633789 157 157 157
26.546875000000 17.750000000000 4.624000549316 162 162 162
26.546875000000 17.750000000000 4.664001464844 156 156 156
26.546875000000 17.750000000000 4.704002380371 160 160 160
26.546875000000 17.750000000000 4.743003845215 151 151 151
26.546875000000 17.750000000000 4.781997680664 153 153 153
26.562500000000 17.765625000000 4.823997497559 152 152 152
26.546875000000 17.765625000000 4.861999511719 115 115 115
26.546875000000 17.765625000000 4.902000427246 117 117 117
26.562500000000 17.765625000000 4.943000793457 128 128 128
26.531250000000 17.750000000000 4.980003356934 129 129 129
26.546875000000 17.765625000000 5.022003173828 130 130 130
26.546875000000 17.765625000000 5.061004638672 140 140 140
26.484375000000 17.734375000000 5.090003967285 133 133 133
26.468750000000 17.718750000000 5.124000549316 132 132 132
26.500000000000 17.734375000000 5.172004699707 122 122 122
26.453125000000 17.718750000000 5.200004577637 116 116 116
26.453125000000 17.718750000000 5.239997863770 144 144 144
26.453125000000 17.718750000000 5.283004760742 128 128 128
26.484375000000 17.734375000000 5.329002380371 148 148 148
26.437500000000 17.703125000000 5.352005004883 144 144 144
26.406250000000 17.703125000000 5.391998291016 90 90 90
26.468750000000 17.718750000000 5.444999694824 46 46 46
26.671875000000 18.125000000000 4.382003784180 137 137 137
26.656250000000 18.125000000000 4.420997619629 155 155 155
26.656250000000 18.125000000000 4.460998535156 158 158 158
26.671875000000 18.125000000000 4.500999450684 162 162 162
26.671875000000 18.125000000000 4.541000366211 152 152 152
26.671875000000 18.125000000000 4.581001281738 156 156 156
26.656250000000 18.125000000000 4.619003295898 51 51 51
26.671875000000 18.140625000000 4.781997680664 122 122 122
26.656250000000 18.140625000000 4.820999145508 147 147 147
26.671875000000 18.140625000000 4.861000061035 156 156 156
26.671875000000 18.140625000000 4.902999877930 148 148 148
26.656250000000 18.140625000000 4.941001892090 149 149 149
26.671875000000 18.140625000000 4.983001708984 147 147 147
26.687500000000 18.140625000000 5.026000976563 39 39 39
26.468750000000 18.046875000000 5.346000671387 72 72 72
26.453125000000 17.406250000000 5.058998107910 194 194 194
26.453125000000 17.406250000000 5.017997741699 208 208 208
26.453125000000 17.406250000000 4.978004455566 211 211 211
26.468750000000 17.406250000000 4.940002441406 215 215 215
26.468750000000 17.406250000000 4.900001525879 208 208 208
26.468750000000 17.406250000000 4.861000061035 209 209 209
26.484375000000 17.390625000000 4.822998046875 98 98 98
26.453125000000 17.421875000000 4.582000732422 185 185 185
26.437500000000 17.406250000000 4.542999267578 220 220 220
26.453125000000 17.421875000000 4.503997802734 225 225 225
26.437500000000 17.406250000000 4.465003967285 216 216 216
26.437500000000 17.406250000000 4.426002502441 219 219 219
26.437500000000 17.421875000000 4.386001586914 217 217 217
26.437500000000 17.421875000000 4.347000122070 167 167 167
26.343750000000 17.812500000000 5.367004394531 88 88 88
26.562500000000 17.687500000000 5.384002685547 151 151 151
26.593750000000 17.656250000000 5.354003906250 156 156 156
26.406250000000 17.765625000000 5.264999389648 135 135 135
26.406250000000 17.781250000000 5.223999023438 120 120 120
26.437500000000 17.750000000000 5.192001342773 72 72 72
26.437500000000 17.750000000000 5.150001525879 123 123 123
26.437500000000 17.750000000000 5.110000610352 165 165 165
26.453125000000 17.750000000000 5.075004577637 99 99 99
26.546875000000 17.687500000000 4.894004821777 182 182 182
26.546875000000 17.687500000000 4.854003906250 205 205 205
26.546875000000 17.687500000000 4.814002990723 207 207 207
26.546875000000 17.687500000000 4.774002075195 208 208 208
26.531250000000 17.703125000000 4.731002807617 216 216 216
26.531250000000 17.703125000000 4.691001892090 221 221 221
26.531250000000 17.703125000000 4.651000976563 220 220 220
26.531250000000 17.703125000000 4.611999511719 218 218 218
26.531250000000 17.687500000000 4.571998596191 210 210 210
26.531250000000 17.703125000000 4.533004760742 215 215 215
26.546875000000 17.687500000000 4.494003295898 71 71 71
26.656250000000 17.609375000000 4.027000427246 78 78 78
26.656250000000 17.625000000000 3.986999511719 91 91 91
26.640625000000 17.625000000000 3.946998596191 96 96 96
26.640625000000 17.625000000000 3.906997680664 98 98 98
26.593750000000 17.656250000000 3.867004394531 98 98 98
26.500000000000 17.703125000000 3.827003479004 152 152 152
26.546875000000 17.687500000000 3.788002014160 126 126 126
26.531250000000 17.687500000000 3.749000549316 136 136 136
26.546875000000 17.687500000000 3.708999633789 171 171 171
26.531250000000 17.687500000000 3.669998168945 174 174 174
26.515625000000 17.703125000000 3.632003784180 132 132 132
26.625000000000 17.625000000000 3.588005065918 94 94 94
26.609375000000 17.625000000000 3.549003601074 96 96 96
26.640625000000 17.625000000000 3.509002685547 100 100 100
26.609375000000 17.625000000000 3.469001770020 95 95 95
26.609375000000 17.625000000000 3.430000305176 95 95 95
26.609375000000 17.640625000000 3.389999389648 61 61 61
26.390625000000 17.765625000000 3.020004272461 19 19 19
26.406250000000 17.765625000000 2.980003356934 25 25 25
26.375000000000 17.781250000000 2.945999145508 41 41 41
26.390625000000 17.765625000000 2.904998779297 55 55 55
26.390625000000 17.765625000000 2.864997863770 65 65 65
26.390625000000 17.765625000000 2.826004028320 67 67 67
26.375000000000 17.765625000000 2.789001464844 75 75 75
26.375000000000 17.765625000000 2.750000000000 75 75 75
26.375000000000 17.765625000000 2.710998535156 84 84 84
26.375000000000 17.781250000000 2.674003601074 86 86 86
26.359375000000 17.781250000000 2.636001586914 88 88 88
26.359375000000 17.781250000000 2.596000671387 94 94 94
26.375000000000 17.781250000000 2.555999755859 96 96 96
26.343750000000 17.781250000000 2.519004821777 96 96 96
26.375000000000 17.765625000000 2.475997924805 100 100 100
26.375000000000 17.765625000000 2.433998107910 119 119 119
26.531250000000 17.687500000000 2.356002807617 27 27 27
26.578125000000 18.000000000000 5.368003845215 108 108 108
26.703125000000 17.921875000000 5.359001159668 133 133 133
26.734375000000 17.890625000000 5.328002929688 98 98 98
26.609375000000 17.968750000000 4.886001586914 212 212 212
26.609375000000 17.953125000000 4.846000671387 219 219 219
26.609375000000 17.968750000000 4.805000305176 215 215 215
26.609375000000 17.968750000000 4.764999389648 218 218 218
26.609375000000 17.968750000000 4.724998474121 215 215 215
26.609375000000 17.968750000000 4.683998107910 212 212 212
26.609375000000 17.968750000000 4.644004821777 213 213 213
26.609375000000 17.953125000000 4.604003906250 211 211 211
26.609375000000 17.953125000000 4.565002441406 211 211 211
26.609375000000 17.953125000000 4.524002075195 206 206 206
26.609375000000 17.953125000000 4.484001159668 174 174 174
26.734375000000 17.890625000000 4.011001586914 93 93 93
26.718750000000 17.890625000000 3.970001220703 92 92 92
26.718750000000 17.890625000000 3.929000854492 99 99 99
26.703125000000 17.890625000000 3.888999938965 95 95 95
26.671875000000 17.921875000000 3.847999572754 96 96 96
26.671875000000 17.921875000000 3.807998657227 106 106 106
26.687500000000 17.921875000000 3.767997741699 100 100 100
26.718750000000 17.890625000000 3.728004455566 117 117 117
26.687500000000 17.906250000000 3.688003540039 182 182 182
26.703125000000 17.906250000000 3.647003173828 170 170 170
26.687500000000 17.906250000000 3.607002258301 162 162 162
26.687500000000 17.906250000000 3.567001342773 121 121 121
26.687500000000 17.921875000000 3.527000427246 91 91 91
26.687500000000 17.906250000000 3.486999511719 124 124 124
26.703125000000 17.906250000000 3.445999145508 83 83 83
26.703125000000 17.890625000000 3.404998779297 97 97 97
26.703125000000 18.250000000000 5.088005065918 16 16 16
26.687500000000 18.250000000000 5.043998718262 213 213 213
26.687500000000 18.250000000000 5.002998352051 214 214 214
26.687500000000 18.250000000000 4.960998535156 217 217 217
26.703125000000 18.250000000000 4.922004699707 226 226 226
26.687500000000 18.250000000000 4.878997802734 219 219 219
26.687500000000 18.250000000000 4.839004516602 186 186 186
26.703125000000 18.250000000000 4.554000854492 147 147 147
26.703125000000 18.250000000000 4.513999938965 207 207 207
26.687500000000 18.250000000000 4.472000122070 212 212 212
26.687500000000 18.250000000000 4.431999206543 209 209 209
26.687500000000 18.250000000000 4.391998291016 211 211 211
26.687500000000 18.250000000000 4.350997924805 208 208 208
26.703125000000 18.250000000000 4.311004638672 165 165 165
26.406250000000 17.250000000000 4.281997680664 57 57 57
26.390625000000 17.250000000000 4.314002990723 180 180 180
26.406250000000 17.250000000000 4.347999572754 206 206 206
26.406250000000 17.250000000000 4.382003784180 205 205 205
26.390625000000 17.250000000000 4.415000915527 213 213 213
26.406250000000 17.250000000000 4.450004577637 201 201 201
26.406250000000 17.250000000000 4.484001159668 190 190 190
26.437500000000 17.265625000000 4.902000427246 194 194 194
26.421875000000 17.265625000000 4.934997558594 216 216 216
26.421875000000 17.265625000000 4.970001220703 217 217 217
26.437500000000 17.265625000000 5.008003234863 204 204 204
26.437500000000 17.265625000000 5.043998718262 211 211 211
26.437500000000 17.265625000000 5.078002929688 181 181 181
26.421875000000 17.265625000000 5.111000061035 113 113 113
26.609375000000 17.562500000000 3.468002319336 74 74 74
26.609375000000 17.562500000000 3.501998901367 92 92 92
26.609375000000 17.562500000000 3.536003112793 92 92 92
26.609375000000 17.562500000000 3.569999694824 96 96 96
26.609375000000 17.562500000000 3.604003906250 96 96 96
26.625000000000 17.562500000000 3.638999938965 96 96 96
26.609375000000 17.562500000000 3.673004150391 95 95 95
26.609375000000 17.562500000000 3.707000732422 95 95 95
26.609375000000 17.562500000000 3.741004943848 94 94 94
26.562500000000 17.562500000000 3.774002075195 95 95 95
26.562500000000 17.562500000000 3.807998657227 92 92 92
26.578125000000 17.578125000000 3.842002868652 92 92 92
26.578125000000 17.578125000000 3.876998901367 94 94 94
26.625000000000 17.562500000000 3.913002014160 90 90 90
26.625000000000 17.562500000000 3.946998596191 94 94 94
26.625000000000 17.562500000000 3.982002258301 91 91 91
26.609375000000 17.562500000000 4.015998840332 70 70 70
26.484375000000 17.578125000000 4.445999145508 193 193 193
26.500000000000 17.578125000000 4.482002258301 195 195 195
26.484375000000 17.578125000000 4.515998840332 206 206 206
26.484375000000 17.578125000000 4.549003601074 199 199 199
26.500000000000 17.578125000000 4.585998535156 215 215 215
26.500000000000 17.578125000000 4.620002746582 202 202 202
26.500000000000 17.578125000000 4.653999328613 202 202 202
26.515625000000 17.578125000000 4.693000793457 161 161 161
26.500000000000 17.578125000000 4.725997924805 206 206 206
26.515625000000 17.578125000000 4.762001037598 208 208 208
26.515625000000 17.578125000000 4.797004699707 206 206 206
26.515625000000 17.578125000000 4.832000732422 206 206 206
26.515625000000 17.578125000000 4.868003845215 205 205 205
26.515625000000 17.578125000000 4.902999877930 206 206 206
26.531250000000 17.593750000000 4.942001342773 97 97 97
26.546875000000 17.593750000000 5.309997558594 83 83 83
26.468750000000 17.593750000000 5.321998596191 30 30 30
26.500000000000 17.859375000000 1.682998657227 184 184 184
26.500000000000 17.859375000000 1.721000671387 186 186 186
26.484375000000 17.859375000000 1.763000488281 203 203 203
26.484375000000 17.859375000000 1.834999084473 232 232 232
26.500000000000 17.859375000000 1.869003295898 234 234 234
26.390625000000 17.875000000000 2.425003051758 62 62 62
26.390625000000 17.875000000000 2.459999084473 58 58 58
26.390625000000 17.875000000000 2.494003295898 55 55 55
26.375000000000 17.875000000000 2.528999328613 56 56 56
26.390625000000 17.875000000000 2.561004638672 56 56 56
26.406250000000 17.875000000000 2.593002319336 55 55 55
26.390625000000 17.875000000000 2.626998901367 58 58 58
26.406250000000 17.875000000000 2.661003112793 46 46 46
26.390625000000 17.875000000000 2.695999145508 43 43 43
26.390625000000 17.875000000000 2.730003356934 45 45 45
26.406250000000 17.875000000000 2.762001037598 44 44 44
26.406250000000 17.875000000000 2.794998168945 34 34 34
26.406250000000 17.875000000000 2.828002929688 35 35 35
26.421875000000 17.875000000000 2.860000610352 32 32 32
26.406250000000 17.875000000000 2.894004821777 29 29 29
26.406250000000 17.875000000000 2.928001403809 29 29 29
26.406250000000 17.875000000000 2.960998535156 21 21 21
26.421875000000 17.875000000000 2.993003845215 20 20 20
26.406250000000 17.875000000000 3.027999877930 24 24 24
26.437500000000 17.875000000000 3.058998107910 21 21 21
26.671875000000 17.875000000000 3.384002685547 85 85 85
26.687500000000 17.875000000000 3.417999267578 83 83 83
26.671875000000 17.875000000000 3.453002929688 83 83 83
26.656250000000 17.875000000000 3.486999511719 83 83 83
26.593750000000 17.890625000000 3.522003173828 115 115 115
26.531250000000 17.890625000000 3.556999206543 173 173 173
26.562500000000 17.875000000000 3.590003967285 145 145 145
26.546875000000 17.890625000000 3.624000549316 173 173 173
26.546875000000 17.890625000000 3.658004760742 170 170 170
26.562500000000 17.890625000000 3.692001342773 159 159 159
26.562500000000 17.890625000000 3.725997924805 138 138 138
26.562500000000 17.890625000000 3.760002136230 157 157 157
26.562500000000 17.890625000000 3.792999267578 169 169 169
26.546875000000 17.890625000000 3.827003479004 131 131 131
26.687500000000 17.890625000000 3.868003845215 96 96 96
26.703125000000 17.890625000000 3.902999877930 92 92 92
26.703125000000 17.890625000000 3.938003540039 93 93 93
26.703125000000 17.890625000000 3.972999572754 87 87 87
26.703125000000 17.890625000000 4.008003234863 78 78 78
26.625000000000 17.890625000000 4.487998962402 29 29 29
26.593750000000 17.906250000000 4.516998291016 203 203 203
26.578125000000 17.890625000000 4.551002502441 208 208 208
26.593750000000 17.906250000000 4.585998535156 210 210 210
26.593750000000 17.906250000000 4.621002197266 204 204 204
26.578125000000 17.890625000000 4.654998779297 198 198 198
26.578125000000 17.890625000000 4.690002441406 201 201 201
26.578125000000 17.890625000000 4.725997924805 198 198 198
26.593750000000 17.906250000000 4.762001037598 200 200 200
26.593750000000 17.906250000000 4.799003601074 200 200 200
26.593750000000 17.906250000000 4.833000183105 194 194 194
26.593750000000 17.906250000000 4.868003845215 109 109 109
26.500000000000 17.906250000000 5.166999816895 74 74 74
26.437500000000 17.906250000000 5.189002990723 110 110 110
26.437500000000 17.921875000000 5.224998474121 139 139 139
26.609375000000 17.906250000000 5.308998107910 145 145 145
26.656250000000 17.906250000000 5.361999511719 157 157 157
26.578125000000 17.906250000000 5.373001098633 148 148 148
26.375000000000 17.921875000000 5.354003906250 85 85 85
26.671875000000 18.218750000000 4.303001403809 166 166 166
26.671875000000 18.218750000000 4.336997985840 208 208 208
26.671875000000 18.218750000000 4.374000549316 214 214 214
26.671875000000 18.218750000000 4.408004760742 208 208 208
26.687500000000 18.218750000000 4.444000244141 211 211 211
26.671875000000 18.218750000000 4.479003906250 211 211 211
26.671875000000 18.218750000000 4.513999938965 207 207 207
26.703125000000 18.218750000000 4.553001403809 76 76 76
26.703125000000 18.234375000000 4.804000854492 101 101 101
26.671875000000 18.218750000000 4.834999084473 193 193 193
26.687500000000 18.234375000000 4.872001647949 213 213 213
26.687500000000 18.234375000000 4.909004211426 212 212 212
26.687500000000 18.234375000000 4.944999694824 197 197 197
26.687500000000 18.234375000000 4.982002258301 197 197 197
26.687500000000 18.234375000000 5.017997741699 197 197 197
26.687500000000 18.234375000000 5.054000854492 119 119 119
26.703125000000 18.234375000000 5.064002990723 211 211 211
26.703125000000 18.234375000000 5.024002075195 218 218 218
26.703125000000 18.234375000000 4.983001708984 216 216 216
26.703125000000 18.234375000000 4.941001892090 225 225 225
26.703125000000 18.234375000000 4.900001525879 214 214 214
26.703125000000 18.234375000000 4.859001159668 201 201 201
26.718750000000 18.218750000000 4.576004028320 200 200 200
26.703125000000 18.218750000000 4.534004211426 211 211 211
26.703125000000 18.218750000000 4.493003845215 210 210 210
26.703125000000 18.218750000000 4.452003479004 211 211 211
26.703125000000 18.218750000000 4.413002014160 215 215 215
26.703125000000 18.218750000000 4.371002197266 205 205 205
26.515625000000 18.031250000000 5.416000366211 20 20 20
26.640625000000 17.937500000000 5.409004211426 130 130 130
26.734375000000 17.890625000000 5.388000488281 137 137 137
26.765625000000 17.875000000000 5.354003906250 54 54 54
26.625000000000 17.968750000000 5.276000976563 48 48 48
26.625000000000 17.953125000000 4.951004028320 18 18 18
26.625000000000 17.953125000000 4.908004760742 213 213 213
26.609375000000 17.953125000000 4.867004394531 218 218 218
26.609375000000 17.953125000000 4.827003479004 215 215 215
26.609375000000 17.953125000000 4.786003112793 220 220 220
26.609375000000 17.953125000000 4.746002197266 214 214 214
26.625000000000 17.953125000000 4.706001281738 215 215 215
26.625000000000 17.953125000000 4.666999816895 212 212 212
26.625000000000 17.953125000000 4.626998901367 215 215 215
26.625000000000 17.953125000000 4.586997985840 212 212 212
26.625000000000 17.953125000000 4.547004699707 204 204 204
26.718750000000 17.859375000000 4.031997680664 90 90 90
26.718750000000 17.859375000000 3.992004394531 96 96 96
26.718750000000 17.859375000000 3.951004028320 93 93 93
26.718750000000 17.875000000000 3.911003112793 95 95 95
26.703125000000 17.890625000000 3.870002746582 97 97 97
26.703125000000 17.875000000000 3.830001831055 99 99 99
26.718750000000 17.859375000000 3.790000915527 98 98 98
26.718750000000 17.859375000000 3.749000549316 111 111 111
26.718750000000 17.859375000000 3.708999633789 97 97 97
26.703125000000 17.875000000000 3.668998718262 190 190 190
26.703125000000 17.875000000000 3.628997802734 145 145 145
26.718750000000 17.859375000000 3.588005065918 102 102 102
26.718750000000 17.859375000000 3.548004150391 97 97 97
26.718750000000 17.859375000000 3.507003784180 150 150 150
26.703125000000 17.875000000000 3.468002319336 131 131 131
26.718750000000 17.859375000000 3.426002502441 103 103 103
26.703125000000 17.875000000000 3.387001037598 48 48 48
26.359375000000 17.796875000000 5.392997741699 100 100 100
26.578125000000 17.671875000000 5.412002563477 146 146 146
26.609375000000 17.640625000000 5.380004882813 153 153 153
26.421875000000 17.765625000000 5.287002563477 129 129 129
26.421875000000 17.765625000000 5.250000000000 109 109 109
26.468750000000 17.734375000000 5.221000671387 19 19 19
26.468750000000 17.734375000000 5.180000305176 132 132 132
26.453125000000 17.750000000000 5.136001586914 138 138 138
26.546875000000 17.671875000000 4.916999816895 204 204 204
26.546875000000 17.671875000000 4.876998901367 208 208 208
26.562500000000 17.671875000000 4.838005065918 204 204 204
26.546875000000 17.671875000000 4.797004699707 209 209 209
26.546875000000 17.671875000000 4.756004333496 217 217 217
26.546875000000 17.687500000000 4.716003417969 220 220 220
26.546875000000 17.671875000000 4.677001953125 219 219 219
26.531250000000 17.687500000000 4.636001586914 215 215 215
26.546875000000 17.687500000000 4.596000671387 207 207 207
26.546875000000 17.687500000000 4.556999206543 215 215 215
26.531250000000 17.687500000000 4.515998840332 77 77 77
26.656250000000 17.593750000000 4.051002502441 89 89 89
26.656250000000 17.593750000000 4.010002136230 96 96 96
26.656250000000 17.593750000000 3.971000671387 97 97 97
26.640625000000 17.609375000000 3.930000305176 106 106 106
26.609375000000 17.625000000000 3.889999389648 96 96 96
26.609375000000 17.625000000000 3.850997924805 100 100 100
26.609375000000 17.625000000000 3.811004638672 105 105 105
26.625000000000 17.609375000000 3.771003723145 117 117 117
26.640625000000 17.609375000000 3.732002258301 176 176 176
26.640625000000 17.593750000000 3.692001342773 91 91 91
26.640625000000 17.593750000000 3.652000427246 91 91 91
26.640625000000 17.593750000000 3.611999511719 99 99 99
26.640625000000 17.593750000000 3.571998596191 99 99 99
26.640625000000 17.593750000000 3.531997680664 96 96 96
26.640625000000 17.593750000000 3.492004394531 86 86 86
26.625000000000 17.593750000000 3.453002929688 40 40 40
26.500000000000 17.390625000000 5.125999450684 40 40 40
26.468750000000 17.406250000000 5.083999633789 205 205 205
26.500000000000 17.390625000000 5.044998168945 213 213 213
26.500000000000 17.390625000000 5.005004882813 209 209 209
26.484375000000 17.390625000000 4.965003967285 220 220 220
26.500000000000 17.390625000000 4.926002502441 218 218 218
26.468750000000 17.406250000000 4.885002136230 205 205 205
26.468750000000 17.406250000000 4.608001708984 182 182 182
26.453125000000 17.406250000000 4.568000793457 219 219 219
26.453125000000 17.406250000000 4.528999328613 226 226 226
26.453125000000 17.406250000000 4.488998413086 216 216 216
26.453125000000 17.406250000000 4.450004577637 220 220 220
26.453125000000 17.406250000000 4.412002563477 214 214 214
26.468750000000 17.390625000000 4.373001098633 179 179 179
26.750000000000 18.375000000000 4.399002075195 116 116 116
26.750000000000 18.359375000000 4.439002990723 149 149 149
26.750000000000 18.359375000000 4.479003906250 148 148 148
26.750000000000 18.359375000000 4.966003417969 147 147 147
26.750000000000 18.359375000000 5.007003784180 177 177 177
26.750000000000 18.359375000000 5.048004150391 121 121 121
26.750000000000 18.359375000000 5.088005065918 56 56 56
26.468750000000 17.890625000000 1.696998596191 173 173 173
26.453125000000 17.890625000000 1.741004943848 171 171 171
26.453125000000 17.890625000000 1.780998229980 177 177 177
26.453125000000 17.890625000000 1.822998046875 190 190 190
26.453125000000 17.890625000000 1.864997863770 192 192 192
26.453125000000 17.875000000000 1.906997680664 201 201 201
26.796875000000 18.078125000000 3.776000976563 74 74 74
26.796875000000 18.078125000000 3.817001342773 71 71 71
26.781250000000 18.062500000000 3.857002258301 74 74 74
26.796875000000 18.078125000000 3.897003173828 73 73 73
26.796875000000 18.078125000000 3.937004089355 79 79 79
26.656250000000 18.000000000000 4.527999877930 160 160 160
26.671875000000 18.000000000000 4.568000793457 158 158 158
26.656250000000 18.000000000000 4.607002258301 161 161 161
26.656250000000 18.000000000000 4.647003173828 156 156 156
26.671875000000 18.000000000000 4.688003540039 162 162 162
26.687500000000 18.015625000000 4.731002807617 192 192 192
26.656250000000 17.984375000000 4.764999389648 145 145 145
26.656250000000 18.000000000000 4.805999755859 154 154 154
26.640625000000 17.984375000000 4.845001220703 145 145 145
26.656250000000 18.000000000000 4.886001586914 147 147 147
26.656250000000 18.000000000000 4.927001953125 147 147 147
26.671875000000 18.000000000000 4.970001220703 101 101 101
26.500000000000 17.906250000000 5.258003234863 174 174 174
26.453125000000 17.890625000000 5.285003662109 136 136 136
26.625000000000 17.984375000000 5.369003295898 175 175 175
26.625000000000 17.984375000000 5.411003112793 145 145 145
26.437500000000 17.875000000000 5.400001525879 129 129 129
26.500000000000 17.906250000000 5.456001281738 160 160 160
26.703125000000 17.703125000000 3.359001159668 31 31 31
26.703125000000 17.703125000000 3.398002624512 71 71 71
26.687500000000 17.703125000000 3.439002990723 77 77 77
26.687500000000 17.703125000000 3.479003906250 83 83 83
26.687500000000 17.703125000000 3.519004821777 89 89 89
26.671875000000 17.687500000000 3.558998107910 81 81 81
26.687500000000 17.703125000000 3.597999572754 78 78 78
26.687500000000 17.703125000000 3.637001037598 86 86 86
26.687500000000 17.703125000000 3.677001953125 110 110 110
26.671875000000 17.687500000000 3.717002868652 114 114 114
26.687500000000 17.703125000000 3.756004333496 74 74 74
26.703125000000 17.703125000000 3.794998168945 75 75 75
26.671875000000 17.687500000000 3.834999084473 76 76 76
26.671875000000 17.687500000000 3.874000549316 77 77 77
26.703125000000 17.703125000000 3.914001464844 71 71 71
26.703125000000 17.703125000000 3.954002380371 72 72 72
26.718750000000 17.718750000000 3.994003295898 71 71 71
26.703125000000 17.703125000000 4.033004760742 68 68 68
26.531250000000 17.625000000000 4.533004760742 149 149 149
26.531250000000 17.625000000000 4.571998596191 194 194 194
26.546875000000 17.625000000000 4.611000061035 187 187 187
26.546875000000 17.625000000000 4.650001525879 185 185 185
26.531250000000 17.625000000000 4.689002990723 183 183 183
26.546875000000 17.625000000000 4.729003906250 143 143 143
26.546875000000 17.625000000000 4.770004272461 157 157 157
26.562500000000 17.640625000000 4.811004638672 158 158 158
26.562500000000 17.640625000000 4.849998474121 159 159 159
26.562500000000 17.640625000000 4.890998840332 155 155 155
26.562500000000 17.640625000000 4.929000854492 156 156 156
26.750000000000 17.734375000000 5.375999450684 125 125 125
26.640625000000 17.671875000000 5.391998291016 111 111 111
26.437500000000 17.250000000000 4.388000488281 121 121 121
26.437500000000 17.250000000000 4.426002502441 150 150 150
26.437500000000 17.250000000000 4.465003967285 186 186 186
26.437500000000 17.250000000000 4.501998901367 148 148 148
26.453125000000 17.250000000000 4.542999267578 26 26 26
26.484375000000 17.265625000000 4.934997558594 50 50 50
26.468750000000 17.250000000000 4.971000671387 166 166 166
26.468750000000 17.250000000000 5.011001586914 193 193 193
26.468750000000 17.250000000000 5.052001953125 169 169 169
26.468750000000 17.265625000000 5.092002868652 153 153 153
26.484375000000 17.265625000000 5.134002685547 112 112 112
26.734375000000 18.375000000000 4.403999328613 183 183 183
26.750000000000 18.375000000000 4.440002441406 201 201 201
26.750000000000 18.375000000000 4.475997924805 167 167 167
26.750000000000 18.375000000000 4.944000244141 185 185 185
26.734375000000 18.375000000000 4.979003906250 201 201 201
26.734375000000 18.375000000000 5.015998840332 181 181 181
26.750000000000 18.375000000000 5.055000305176 77 77 77
26.750000000000 18.062500000000 3.684997558594 75 75 75
26.781250000000 18.062500000000 3.721000671387 102 102 102
26.781250000000 18.062500000000 3.756004333496 92 92 92
26.781250000000 18.062500000000 3.791000366211 89 89 89
26.781250000000 18.062500000000 3.826004028320 92 92 92
26.812500000000 18.062500000000 3.861000061035 90 90 90
26.781250000000 18.062500000000 3.897003173828 92 92 92
26.781250000000 18.062500000000 3.930999755859 92 92 92
26.781250000000 18.062500000000 3.966003417969 91 91 91
26.781250000000 18.062500000000 4.001998901367 18 18 18
26.656250000000 18.062500000000 4.445999145508 198 198 198
26.656250000000 18.062500000000 4.480003356934 209 209 209
26.656250000000 18.062500000000 4.514999389648 208 208 208
26.656250000000 18.062500000000 4.551002502441 211 211 211
26.656250000000 18.062500000000 4.585998535156 211 211 211
26.656250000000 18.062500000000 4.622001647949 211 211 211
26.656250000000 18.062500000000 4.655998229980 198 198 198
26.640625000000 18.062500000000 4.761001586914 196 196 196
26.640625000000 18.062500000000 4.795997619629 202 202 202
26.656250000000 18.062500000000 4.833000183105 200 200 200
26.656250000000 18.062500000000 4.870002746582 197 197 197
26.656250000000 18.062500000000 4.906997680664 202 202 202
26.656250000000 18.062500000000 4.941001892090 198 198 198
26.656250000000 18.062500000000 4.978004455566 170 170 170
26.421875000000 17.765625000000 1.680999755859 122 122 122
26.468750000000 17.750000000000 1.703002929688 183 183 183
26.437500000000 17.750000000000 1.750000000000 155 155 155
26.437500000000 17.750000000000 1.784004211426 160 160 160
26.437500000000 17.750000000000 1.820999145508 162 162 162
26.437500000000 17.750000000000 1.857002258301 162 162 162
26.437500000000 17.750000000000 1.891998291016 163 163 163
26.437500000000 17.750000000000 1.928001403809 169 169 169
26.453125000000 17.765625000000 1.961997985840 169 169 169
26.437500000000 17.750000000000 2.000000000000 166 166 166
26.468750000000 17.750000000000 2.450004577637 167 167 167
26.468750000000 17.750000000000 2.485000610352 167 167 167
26.484375000000 17.750000000000 2.517997741699 168 168 168
26.484375000000 17.750000000000 2.553001403809 166 166 166
26.484375000000 17.750000000000 2.588005065918 164 164 164
26.484375000000 17.750000000000 2.620002746582 166 166 166
26.484375000000 17.750000000000 2.654998779297 164 164 164
26.484375000000 17.750000000000 2.688003540039 163 163 163
26.484375000000 17.750000000000 2.722999572754 162 162 162
26.484375000000 17.750000000000 2.757003784180 165 165 165
26.484375000000 17.750000000000 2.791000366211 163 163 163
26.484375000000 17.750000000000 2.825004577637 164 164 164
26.500000000000 17.750000000000 2.858001708984 167 167 167
26.500000000000 17.750000000000 2.891998291016 167 167 167
26.500000000000 17.750000000000 2.926002502441 170 170 170
26.500000000000 17.750000000000 2.958999633789 173 173 173
26.500000000000 17.750000000000 2.993003845215 175 175 175
26.500000000000 17.750000000000 3.027000427246 181 181 181
26.515625000000 17.750000000000 3.059997558594 181 181 181
26.515625000000 17.750000000000 3.094001770020 185 185 185
26.515625000000 17.750000000000 3.127998352051 185 185 185
26.515625000000 17.750000000000 3.161003112793 188 188 188
26.515625000000 17.750000000000 3.194999694824 192 192 192
26.500000000000 17.750000000000 3.229003906250 195 195 195
26.515625000000 17.750000000000 3.262001037598 196 196 196
26.515625000000 17.750000000000 3.295997619629 201 201 201
26.515625000000 17.750000000000 3.329002380371 204 204 204
26.515625000000 17.750000000000 3.362998962402 207 207 207
26.515625000000 17.750000000000 3.396003723145 210 210 210
26.515625000000 17.750000000000 3.430000305176 221 221 221
26.515625000000 17.750000000000 3.463005065918 218 218 218
26.515625000000 17.750000000000 3.497001647949 210 210 210
26.515625000000 17.750000000000 3.529998779297 203 203 203
26.531250000000 17.750000000000 3.564002990723 201 201 201
26.515625000000 17.750000000000 3.597999572754 193 193 193
26.531250000000 17.750000000000 3.631004333496 201 201 201
26.531250000000 17.750000000000 3.665000915527 204 204 204
26.531250000000 17.750000000000 3.697998046875 193 193 193
26.531250000000 17.750000000000 3.732002258301 185 185 185
26.531250000000 17.750000000000 3.765998840332 185 185 185
26.531250000000 17.750000000000 3.800003051758 183 183 183
26.515625000000 17.750000000000 3.833000183105 193 193 193
26.531250000000 17.750000000000 3.867004394531 181 181 181
26.531250000000 17.750000000000 3.901000976563 178 178 178
26.546875000000 17.750000000000 3.934997558594 174 174 174
26.546875000000 17.750000000000 3.969001770020 177 177 177
26.531250000000 17.750000000000 4.001998901367 174 174 174
26.531250000000 17.750000000000 4.036003112793 173 173 173
26.546875000000 17.750000000000 4.070999145508 170 170 170
26.531250000000 17.750000000000 4.104003906250 167 167 167
26.531250000000 17.750000000000 4.137001037598 165 165 165
26.531250000000 17.750000000000 4.172004699707 161 161 161
26.546875000000 17.750000000000 4.207000732422 164 164 164
26.546875000000 17.750000000000 4.239997863770 156 156 156
26.531250000000 17.750000000000 4.274002075195 156 156 156
26.546875000000 17.750000000000 4.308998107910 158 158 158
26.546875000000 17.750000000000 4.343002319336 157 157 157
26.546875000000 17.750000000000 4.378997802734 155 155 155
26.546875000000 17.750000000000 4.411003112793 150 150 150
26.546875000000 17.750000000000 4.445999145508 150 150 150
26.546875000000 17.750000000000 4.482002258301 149 149 149
26.546875000000 17.750000000000 4.515998840332 150 150 150
26.562500000000 17.750000000000 4.552001953125 174 174 174
26.562500000000 17.750000000000 4.586997985840 195 195 195
26.562500000000 17.750000000000 4.621002197266 198 198 198
26.562500000000 17.750000000000 4.655998229980 196 196 196
26.562500000000 17.750000000000 4.691001892090 197 197 197
26.562500000000 17.750000000000 4.727005004883 192 192 192
26.546875000000 17.750000000000 4.760002136230 188 188 188
26.562500000000 17.750000000000 4.799003601074 194 194 194
26.562500000000 17.750000000000 4.833999633789 196 196 196
26.562500000000 17.750000000000 4.869003295898 168 168 168
26.562500000000 17.750000000000 4.903999328613 123 123 123
26.562500000000 17.750000000000 4.940002441406 123 123 123
26.562500000000 17.750000000000 4.974998474121 120 120 120
26.562500000000 17.750000000000 5.010002136230 126 126 126
26.562500000000 17.750000000000 5.044998168945 118 118 118
26.515625000000 17.750000000000 5.069999694824 149 149 149
26.468750000000 17.750000000000 5.094001770020 172 172 172
26.453125000000 17.750000000000 5.125999450684 184 184 184
26.484375000000 17.750000000000 5.167999267578 158 158 158
26.468750000000 17.750000000000 5.203002929688 116 116 116
26.453125000000 17.750000000000 5.230003356934 124 124 124
26.437500000000 17.750000000000 5.262001037598 147 147 147
26.484375000000 17.750000000000 5.315002441406 136 136 136
26.531250000000 17.750000000000 5.361999511719 155 155 155
26.453125000000 17.750000000000 5.375000000000 152 152 152
26.390625000000 17.750000000000 5.395004272461 79 79 79
26.593750000000 17.421875000000 3.752998352051 60 60 60
26.609375000000 17.421875000000 3.787002563477 90 90 90
26.593750000000 17.421875000000 3.820999145508 91 91 91
26.593750000000 17.421875000000 3.855003356934 91 91 91
26.609375000000 17.421875000000 3.889999389648 91 91 91
26.609375000000 17.421875000000 3.924003601074 83 83 83
26.593750000000 17.421875000000 3.958000183105 49 49 49
26.468750000000 17.421875000000 4.387001037598 187 187 187
26.468750000000 17.421875000000 4.420997619629 206 206 206
26.468750000000 17.421875000000 4.456001281738 208 208 208
26.468750000000 17.421875000000 4.488998413086 207 207 207
26.468750000000 17.421875000000 4.524002075195 206 206 206
26.468750000000 17.421875000000 4.557998657227 206 206 206
26.468750000000 17.421875000000 4.592002868652 204 204 204
26.500000000000 17.421875000000 4.631004333496 39 39 39
26.500000000000 17.421875000000 4.838005065918 192 192 192
26.484375000000 17.421875000000 4.873001098633 213 213 213
26.500000000000 17.421875000000 4.909004211426 198 198 198
26.484375000000 17.421875000000 4.943000793457 210 210 210
26.484375000000 17.421875000000 4.979003906250 209 209 209
26.500000000000 17.421875000000 5.014999389648 205 205 205
26.500000000000 17.421875000000 5.053001403809 195 195 195
26.515625000000 17.421875000000 5.098999023438 91 91 91
26.500000000000 17.437500000000 5.055999755859 189 189 189
26.500000000000 17.437500000000 5.015998840332 195 195 195
26.500000000000 17.437500000000 4.975997924805 191 191 191
26.500000000000 17.437500000000 4.936004638672 205 205 205
26.515625000000 17.437500000000 4.897003173828 211 211 211
26.515625000000 17.437500000000 4.857002258301 185 185 185
26.500000000000 17.453125000000 4.618003845215 147 147 147
26.484375000000 17.453125000000 4.578002929688 207 207 207
26.500000000000 17.453125000000 4.540000915527 204 204 204
26.484375000000 17.453125000000 4.500000000000 206 206 206
26.484375000000 17.453125000000 4.460998535156 205 205 205
26.484375000000 17.453125000000 4.422004699707 203 203 203
26.500000000000 17.453125000000 4.384002685547 168 168 168
26.390625000000 17.828125000000 5.408004760742 69 69 69
26.468750000000 17.781250000000 5.386001586914 140 140 140
26.625000000000 17.703125000000 5.387001037598 148 148 148
26.500000000000 17.765625000000 5.314002990723 133 133 133
26.437500000000 17.796875000000 5.260002136230 122 122 122
26.468750000000 17.796875000000 5.222000122070 100 100 100
26.484375000000 17.781250000000 5.189002990723 114 114 114
26.484375000000 17.781250000000 5.147003173828 170 170 170
26.484375000000 17.781250000000 5.107002258301 162 162 162
26.515625000000 17.765625000000 5.072998046875 83 83 83
26.593750000000 17.718750000000 4.930000305176 17 17 17
26.562500000000 17.734375000000 4.886001586914 190 190 190
26.593750000000 17.718750000000 4.847999572754 194 194 194
26.578125000000 17.734375000000 4.806999206543 194 194 194
26.562500000000 17.734375000000 4.764999389648 197 197 197
26.562500000000 17.734375000000 4.724998474121 201 201 201
26.562500000000 17.734375000000 4.686004638672 207 207 207
26.562500000000 17.734375000000 4.645004272461 204 204 204
26.562500000000 17.734375000000 4.606002807617 202 202 202
26.562500000000 17.734375000000 4.565002441406 202 202 202
26.546875000000 17.750000000000 4.525001525879 71 71 71
26.437500000000 17.812500000000 4.165000915527 19 19 19
26.437500000000 17.812500000000 4.125999450684 40 40 40
26.437500000000 17.796875000000 4.088005065918 52 52 52
26.484375000000 17.781250000000 4.051002502441 84 84 84
26.500000000000 17.781250000000 4.013000488281 108 108 108
26.484375000000 17.781250000000 3.973999023438 107 107 107
26.500000000000 17.796875000000 3.934997558594 112 112 112
26.468750000000 17.796875000000 3.896003723145 116 116 116
26.484375000000 17.781250000000 3.858001708984 133 133 133
26.500000000000 17.796875000000 3.819999694824 153 153 153
26.484375000000 17.781250000000 3.780998229980 153 153 153
26.484375000000 17.796875000000 3.743003845215 151 151 151
26.468750000000 17.796875000000 3.704002380371 160 160 160
26.468750000000 17.796875000000 3.666000366211 145 145 145
26.437500000000 17.812500000000 3.627998352051 141 141 141
26.437500000000 17.812500000000 3.590003967285 142 142 142
26.437500000000 17.812500000000 3.552001953125 142 142 142
