27.671875000000 14.343750000000 6.472000122070 105 105 105
27.640625000000 14.343750000000 6.505004882813 134 134 134
27.609375000000 14.343750000000 6.544998168945 139 139 139
27.687500000000 14.671875000000 6.222999572754 107 107 107
27.671875000000 14.671875000000 6.263999938965 209 209 209
27.687500000000 14.671875000000 6.315002441406 188 188 188
27.687500000000 14.671875000000 6.362998962402 200 200 200
27.687500000000 14.671875000000 6.408004760742 182 182 182
27.671875000000 14.671875000000 6.451004028320 197 197 197
27.671875000000 14.671875000000 6.496002197266 32 32 32
27.640625000000 14.671875000000 6.528999328613 167 167 167
27.703125000000 14.984375000000 6.244003295898 169 169 169
27.687500000000 14.984375000000 6.288002014160 201 201 201
27.703125000000 14.984375000000 6.341003417969 182 182 182
27.703125000000 14.984375000000 6.388000488281 183 183 183
27.703125000000 14.984375000000 6.432998657227 198 198 198
27.703125000000 14.984375000000 6.481002807617 82 82 82
27.656250000000 15.000000000000 6.510002136230 126 126 126
27.640625000000 15.000000000000 6.552001953125 147 147 147
27.718750000000 15.312500000000 6.228004455566 81 81 81
27.718750000000 15.312500000000 6.273002624512 200 200 200
27.718750000000 15.312500000000 6.319999694824 209 209 209
27.718750000000 15.312500000000 6.366004943848 212 212 212
27.718750000000 15.312500000000 6.414001464844 211 211 211
27.718750000000 15.312500000000 6.461997985840 178 178 178
27.656250000000 15.312500000000 6.531997680664 162 162 162
27.640625000000 15.328125000000 6.571998596191 67 67 67
27.734375000000 15.640625000000 6.250000000000 113 113 113
27.718750000000 15.640625000000 6.526000976563 79 79 79
27.656250000000 15.640625000000 6.557998657227 170 170 170
27.718750000000 15.968750000000 6.274002075195 105 105 105
27.687500000000 15.968750000000 6.543998718262 145 145 145
27.671875000000 15.968750000000 6.585998535156 113 113 113
27.734375000000 16.281250000000 6.263000488281 80 80 80
27.734375000000 16.281250000000 6.307998657227 35 35 35
27.734375000000 16.281250000000 6.544998168945 13 13 13
27.703125000000 16.281250000000 6.575004577637 173 173 173
27.687500000000 16.281250000000 6.619003295898 25 25 25
27.750000000000 16.609375000000 6.289001464844 126 126 126
27.718750000000 16.609375000000 6.562004089355 80 80 80
27.687500000000 16.609375000000 6.597999572754 163 163 163
27.718750000000 16.937500000000 6.582000732422 134 134 134
27.703125000000 16.937500000000 6.626998901367 138 138 138
27.734375000000 17.265625000000 6.606002807617 153 153 153
27.718750000000 17.265625000000 6.651000976563 106 106 106
27.750000000000 17.578125000000 6.638000488281 155 155 155
27.765625000000 17.906250000000 6.625999450684 71 71 71
27.750000000000 17.906250000000 6.666000366211 122 122 122
27.765625000000 18.218750000000 6.652000427246 120 120 120
27.750000000000 18.218750000000 6.697998046875 85 85 85
27.453125000000 18.500000000000 2.250999450684 189 189 189
27.453125000000 18.500000000000 2.291000366211 188 188 188
27.453125000000 18.500000000000 2.331001281738 184 184 184
27.468750000000 18.500000000000 2.370002746582 183 183 183
27.453125000000 18.500000000000 2.411003112793 182 182 182
27.453125000000 18.500000000000 2.451004028320 180 180 180
27.468750000000 18.500000000000 2.489997863770 178 178 178
27.468750000000 18.500000000000 2.528999328613 182 182 182
27.468750000000 18.500000000000 2.569000244141 188 188 188
27.468750000000 18.500000000000 2.609001159668 180 180 180
27.468750000000 18.500000000000 2.650001525879 182 182 182
27.468750000000 18.500000000000 2.689002990723 178 178 178
27.484375000000 18.500000000000 2.727005004883 179 179 179
27.468750000000 18.500000000000 2.767997741699 178 178 178
27.484375000000 18.500000000000 2.806999206543 182 182 182
27.484375000000 18.500000000000 2.847000122070 179 179 179
27.500000000000 18.515625000000 2.885002136230 182 182 182
27.500000000000 18.515625000000 2.925003051758 176 176 176
27.500000000000 18.515625000000 2.964004516602 184 184 184
27.500000000000 18.515625000000 3.003997802734 184 184 184
27.500000000000 18.515625000000 3.042999267578 182 182 182
27.500000000000 18.515625000000 3.083000183105 177 177 177
27.500000000000 18.515625000000 3.122001647949 176 176 176
27.515625000000 18.515625000000 3.161003112793 178 178 178
27.515625000000 18.515625000000 3.200004577637 177 177 177
27.515625000000 18.515625000000 3.239997863770 180 180 180
27.531250000000 18.500000000000 3.278999328613 175 175 175
27.515625000000 18.515625000000 3.319000244141 177 177 177
27.531250000000 18.515625000000 3.358001708984 188 188 188
27.531250000000 18.515625000000 3.397003173828 188 188 188
27.531250000000 18.515625000000 3.437004089355 192 192 192
27.531250000000 18.515625000000 3.475997924805 189 189 189
27.531250000000 18.515625000000 3.515998840332 184 184 184
27.531250000000 18.515625000000 3.555000305176 186 186 186
27.531250000000 18.515625000000 3.595001220703 199 199 199
27.546875000000 18.515625000000 3.634002685547 201 201 201
27.546875000000 18.515625000000 3.674003601074 206 206 206
27.531250000000 18.515625000000 3.713005065918 199 199 199
27.546875000000 18.515625000000 3.752998352051 200 200 200
27.546875000000 18.515625000000 3.792999267578 195 195 195
27.546875000000 18.515625000000 3.833000183105 196 196 196
27.546875000000 18.515625000000 3.872001647949 192 192 192
27.562500000000 18.515625000000 3.912002563477 189 189 189
27.546875000000 18.515625000000 3.952003479004 190 190 190
27.562500000000 18.515625000000 3.992004394531 201 201 201
27.562500000000 18.515625000000 4.031997680664 194 194 194
27.562500000000 18.515625000000 4.071998596191 191 191 191
27.562500000000 18.515625000000 4.111999511719 189 189 189
27.562500000000 18.515625000000 4.152000427246 193 193 193
27.578125000000 18.515625000000 4.193000793457 184 184 184
27.578125000000 18.515625000000 4.233001708984 184 184 184
27.578125000000 18.515625000000 4.273002624512 186 186 186
27.578125000000 18.515625000000 4.314002990723 185 185 185
27.578125000000 18.515625000000 4.354003906250 182 182 182
27.578125000000 18.515625000000 4.395004272461 188 188 188
27.593750000000 18.515625000000 4.436004638672 182 182 182
27.593750000000 18.515625000000 4.477005004883 189 189 189
27.593750000000 18.515625000000 4.517997741699 185 185 185
27.609375000000 18.531250000000 4.558998107910 185 185 185
27.593750000000 18.515625000000 4.599998474121 181 181 181
27.609375000000 18.531250000000 4.640998840332 187 187 187
27.609375000000 18.531250000000 4.682998657227 189 189 189
27.609375000000 18.531250000000 4.722999572754 191 191 191
27.609375000000 18.531250000000 4.764999389648 169 169 169
27.625000000000 18.531250000000 4.807998657227 178 178 178
27.609375000000 18.531250000000 4.847999572754 181 181 181
27.609375000000 18.531250000000 4.889999389648 182 182 182
27.609375000000 18.531250000000 4.930999755859 182 182 182
27.625000000000 18.531250000000 4.973999023438 177 177 177
27.625000000000 18.531250000000 5.016998291016 178 178 178
27.625000000000 18.531250000000 5.057998657227 183 183 183
27.640625000000 18.531250000000 5.103004455566 175 175 175
27.625000000000 18.531250000000 5.142997741699 177 177 177
27.640625000000 18.531250000000 5.186004638672 178 178 178
27.640625000000 18.531250000000 5.229003906250 178 178 178
27.640625000000 18.531250000000 5.273002624512 178 178 178
27.640625000000 18.531250000000 5.314002990723 179 179 179
27.640625000000 18.531250000000 5.358001708984 174 174 174
27.656250000000 18.531250000000 5.402999877930 175 175 175
27.640625000000 18.531250000000 5.444999694824 173 173 173
27.656250000000 18.546875000000 5.489997863770 177 177 177
27.656250000000 18.546875000000 5.535003662109 171 171 171
27.656250000000 18.546875000000 5.577003479004 170 170 170
27.656250000000 18.546875000000 5.624000549316 169 169 169
27.671875000000 18.546875000000 5.667999267578 172 172 172
27.671875000000 18.546875000000 5.711997985840 173 173 173
27.656250000000 18.546875000000 5.755004882813 174 174 174
27.671875000000 18.546875000000 5.801002502441 179 179 179
27.671875000000 18.546875000000 5.846000671387 174 174 174
27.671875000000 18.546875000000 5.892997741699 165 165 165
27.671875000000 18.546875000000 5.939002990723 171 171 171
27.687500000000 18.546875000000 5.986999511719 167 167 167
27.671875000000 18.546875000000 6.029998779297 165 165 165
27.687500000000 18.546875000000 6.081001281738 163 163 163
27.703125000000 18.546875000000 6.127998352051 163 163 163
27.703125000000 18.546875000000 6.173004150391 158 158 158
27.687500000000 18.546875000000 6.219001770020 160 160 160
27.687500000000 18.546875000000 6.263999938965 158 158 158
27.703125000000 18.546875000000 6.313003540039 159 159 159
27.703125000000 18.546875000000 6.364997863770 155 155 155
27.703125000000 18.546875000000 6.411003112793 159 159 159
27.718750000000 18.546875000000 6.463005065918 161 161 161
27.718750000000 18.546875000000 6.509002685547 156 156 156
27.718750000000 18.546875000000 6.558998107910 164 164 164
27.734375000000 18.546875000000 6.611000061035 159 159 159
27.734375000000 18.546875000000 6.663002014160 162 162 162
27.718750000000 18.546875000000 6.700004577637 110 110 110
27.750000000000 18.546875000000 6.764999389648 156 156 156
27.750000000000 18.546875000000 6.815002441406 157 157 157
27.750000000000 18.546875000000 6.862998962402 163 163 163
27.750000000000 18.546875000000 6.913002014160 164 164 164
27.750000000000 18.546875000000 6.965003967285 171 171 171
27.750000000000 18.546875000000 7.019004821777 160 160 160
27.750000000000 18.546875000000 7.069999694824 155 155 155
27.781250000000 18.546875000000 7.128997802734 159 159 159
27.765625000000 18.562500000000 7.178001403809 158 158 158
27.765625000000 18.562500000000 7.225997924805 141 141 141
27.781250000000 18.593750000000 7.321998596191 5 5 5
27.796875000000 18.578125000000 7.279998779297 167 167 167
27.781250000000 18.578125000000 7.220001220703 167 167 167
27.781250000000 18.593750000000 7.159004211426 166 166 166
27.765625000000 18.593750000000 7.098999023438 166 166 166
27.781250000000 18.593750000000 7.047004699707 182 182 182
27.765625000000 18.593750000000 6.991004943848 170 170 170
27.765625000000 18.593750000000 6.938003540039 169 169 169
27.765625000000 18.593750000000 6.884002685547 168 168 168
27.765625000000 18.593750000000 6.823997497559 175 175 175
27.750000000000 18.593750000000 6.763999938965 117 117 117
27.765625000000 18.593750000000 6.720001220703 167 167 167
27.750000000000 18.593750000000 6.663002014160 170 170 170
27.750000000000 18.593750000000 6.605003356934 160 160 160
27.750000000000 18.593750000000 6.552001953125 176 176 176
27.734375000000 18.593750000000 6.500000000000 172 172 172
27.734375000000 18.593750000000 6.445999145508 170 170 170
27.734375000000 18.593750000000 6.395004272461 175 175 175
27.734375000000 18.609375000000 6.341003417969 176 176 176
27.734375000000 18.609375000000 6.288002014160 179 179 179
27.718750000000 18.609375000000 6.236000061035 173 173 173
27.718750000000 18.609375000000 6.184997558594 169 169 169
27.718750000000 18.609375000000 6.131004333496 172 172 172
27.718750000000 18.609375000000 6.082000732422 177 177 177
27.718750000000 18.609375000000 6.028999328613 174 174 174
27.703125000000 18.609375000000 5.978004455566 169 169 169
27.703125000000 18.609375000000 5.927001953125 160 160 160
27.703125000000 18.609375000000 5.876998901367 175 175 175
27.687500000000 18.609375000000 5.823997497559 194 194 194
27.687500000000 18.609375000000 5.774002075195 183 183 183
27.671875000000 18.625000000000 5.722999572754 182 182 182
27.671875000000 18.625000000000 5.674003601074 184 184 184
27.671875000000 18.625000000000 5.623001098633 184 184 184
27.656250000000 18.625000000000 5.573997497559 169 169 169
27.656250000000 18.625000000000 5.525001525879 195 195 195
27.656250000000 18.625000000000 5.475997924805 188 188 188
27.656250000000 18.625000000000 5.426002502441 192 192 192
27.656250000000 18.625000000000 5.376998901367 189 189 189
27.656250000000 18.625000000000 5.328002929688 187 187 187
27.656250000000 18.625000000000 5.280998229980 188 188 188
27.656250000000 18.625000000000 5.234001159668 189 189 189
27.640625000000 18.625000000000 5.183998107910 186 186 186
27.640625000000 18.625000000000 5.136001586914 184 184 184
27.640625000000 18.625000000000 5.088005065918 199 199 199
27.640625000000 18.625000000000 5.039001464844 190 190 190
27.640625000000 18.625000000000 4.992004394531 189 189 189
27.640625000000 18.625000000000 4.944000244141 193 193 193
27.640625000000 18.625000000000 4.897003173828 199 199 199
27.640625000000 18.625000000000 4.848999023438 192 192 192
27.625000000000 18.625000000000 4.801002502441 187 187 187
27.625000000000 18.625000000000 4.753997802734 202 202 202
27.625000000000 18.625000000000 4.707000732422 206 206 206
27.625000000000 18.625000000000 4.659004211426 203 203 203
27.625000000000 18.625000000000 4.612998962402 200 200 200
27.625000000000 18.625000000000 4.566001892090 206 206 206
27.625000000000 18.625000000000 4.519004821777 201 201 201
27.625000000000 18.625000000000 4.472000122070 201 201 201
27.609375000000 18.625000000000 4.425003051758 202 202 202
27.609375000000 18.625000000000 4.378997802734 209 209 209
27.609375000000 18.625000000000 4.332000732422 209 209 209
27.609375000000 18.625000000000 4.285003662109 204 204 204
27.609375000000 18.625000000000 4.238998413086 195 195 195
27.593750000000 18.625000000000 4.192001342773 208 208 208
27.593750000000 18.625000000000 4.146003723145 203 203 203
27.593750000000 18.640625000000 4.098999023438 196 196 196
27.593750000000 18.625000000000 4.053001403809 201 201 201
27.593750000000 18.640625000000 4.007003784180 211 211 211
27.578125000000 18.625000000000 3.960998535156 213 213 213
27.578125000000 18.625000000000 3.914001464844 211 211 211
27.578125000000 18.625000000000 3.868003845215 213 213 213
27.578125000000 18.625000000000 3.821998596191 214 214 214
27.578125000000 18.625000000000 3.776000976563 213 213 213
27.578125000000 18.625000000000 3.730003356934 219 219 219
27.562500000000 18.640625000000 3.683998107910 217 217 217
27.562500000000 18.640625000000 3.638000488281 213 213 213
27.562500000000 18.640625000000 3.592002868652 203 203 203
27.562500000000 18.640625000000 3.545997619629 212 212 212
27.562500000000 18.640625000000 3.500000000000 217 217 217
27.562500000000 18.640625000000 3.454002380371 219 219 219
27.546875000000 18.640625000000 3.409004211426 219 219 219
27.546875000000 18.640625000000 3.362998962402 215 215 215
27.546875000000 18.640625000000 3.316001892090 214 214 214
27.546875000000 18.640625000000 3.271003723145 217 217 217
27.546875000000 18.640625000000 3.224998474121 215 215 215
27.546875000000 18.656250000000 3.179000854492 224 224 224
27.546875000000 18.640625000000 3.133003234863 222 222 222
27.546875000000 18.640625000000 3.086997985840 218 218 218
27.531250000000 18.640625000000 3.041000366211 213 213 213
27.531250000000 18.640625000000 2.995002746582 214 214 214
27.531250000000 18.640625000000 2.947998046875 218 218 218
27.531250000000 18.640625000000 2.902999877930 212 212 212
27.531250000000 18.640625000000 2.856002807617 213 213 213
27.531250000000 18.640625000000 2.808998107910 211 211 211
27.531250000000 18.640625000000 2.763999938965 211 211 211
27.531250000000 18.640625000000 2.717002868652 197 197 197
27.531250000000 18.640625000000 2.669998168945 202 202 202
27.531250000000 18.640625000000 2.624000549316 198 198 198
27.515625000000 18.640625000000 2.577003479004 197 197 197
27.531250000000 18.640625000000 2.528999328613 201 201 201
27.515625000000 18.640625000000 2.483001708984 194 194 194
27.515625000000 18.640625000000 2.434997558594 194 194 194
27.515625000000 18.640625000000 2.388999938965 191 191 191
27.515625000000 18.640625000000 2.341003417969 191 191 191
27.515625000000 18.640625000000 2.293998718262 181 181 181
27.515625000000 18.640625000000 2.247001647949 179 179 179
27.515625000000 18.640625000000 2.198997497559 172 172 172
27.500000000000 18.640625000000 2.154998779297 175 175 175
27.500000000000 18.640625000000 2.107002258301 153 153 153
27.500000000000 18.640625000000 2.057998657227 153 153 153
27.531250000000 18.625000000000 2.005004882813 200 200 200
27.500000000000 18.640625000000 1.961997985840 151 151 151
27.781250000000 18.250000000000 6.760002136230 97 97 97
27.796875000000 18.234375000000 6.710998535156 81 81 81
27.750000000000 17.937500000000 6.728004455566 101 101 101
27.812500000000 17.906250000000 6.693000793457 67 67 67
27.765625000000 17.609375000000 6.709999084473 138 138 138
27.781250000000 17.593750000000 6.656997680664 24 24 24
27.765625000000 17.296875000000 6.733001708984 38 38 38
27.750000000000 17.296875000000 6.677001953125 146 146 146
27.718750000000 16.984375000000 6.698997497559 107 107 107
27.750000000000 16.984375000000 6.648002624512 127 127 127
27.718750000000 16.671875000000 6.667999267578 147 147 147
27.734375000000 16.656250000000 6.621002197266 79 79 79
27.765625000000 16.640625000000 6.372001647949 72 72 72
27.781250000000 16.625000000000 6.326004028320 9 9 9
27.734375000000 16.359375000000 6.640998840332 158 158 158
27.750000000000 16.328125000000 6.346000671387 118 118 118
27.718750000000 16.046875000000 6.663002014160 92 92 92
27.718750000000 16.031250000000 6.612998962402 132 132 132
27.750000000000 16.000000000000 6.316001892090 93 93 93
27.687500000000 15.734375000000 6.630004882813 142 142 142
27.718750000000 15.718750000000 6.589004516602 83 83 83
27.750000000000 15.687500000000 6.341003417969 48 48 48
27.734375000000 15.687500000000 6.287002563477 12 12 12
27.687500000000 15.406250000000 6.604003906250 147 147 147
27.718750000000 15.375000000000 6.568000793457 111 111 111
27.734375000000 15.375000000000 6.520004272461 148 148 148
27.734375000000 15.359375000000 6.472999572754 180 180 180
27.734375000000 15.359375000000 6.418998718262 185 185 185
27.734375000000 15.359375000000 6.367004394531 182 182 182
27.734375000000 15.375000000000 6.312004089355 146 146 146
27.671875000000 15.093750000000 6.631004333496 100 100 100
27.671875000000 15.093750000000 6.582000732422 128 128 128
27.718750000000 15.062500000000 6.548004150391 78 78 78
27.718750000000 15.046875000000 6.499000549316 181 181 181
27.718750000000 15.062500000000 6.443000793457 119 119 119
27.718750000000 15.062500000000 6.390998840332 184 184 184
27.718750000000 15.062500000000 6.340003967285 214 214 214
27.718750000000 15.062500000000 6.288002014160 95 95 95
27.656250000000 14.781250000000 6.603004455566 153 153 153
27.687500000000 14.765625000000 6.559997558594 46 46 46
27.703125000000 14.750000000000 6.519004821777 162 162 162
27.703125000000 14.734375000000 6.469001770020 153 153 153
27.718750000000 14.734375000000 6.417999267578 191 191 191
27.703125000000 14.734375000000 6.363998413086 187 187 187
27.703125000000 14.734375000000 6.312004089355 192 192 192
27.640625000000 14.468750000000 6.625999450684 87 87 87
27.640625000000 14.468750000000 6.570999145508 133 133 133
27.687500000000 14.437500000000 6.542999267578 107 107 107
27.703125000000 14.421875000000 6.495002746582 183 183 183
27.703125000000 14.421875000000 6.442001342773 189 189 189
27.687500000000 14.421875000000 6.388000488281 191 191 191
27.687500000000 14.421875000000 6.336997985840 185 185 185
27.687500000000 14.437500000000 6.281997680664 113 113 113
27.625000000000 14.156250000000 6.592002868652 150 150 150
27.640625000000 14.140625000000 6.549003601074 56 56 56
27.687500000000 14.109375000000 6.514999389648 161 161 161
27.687500000000 14.109375000000 6.463005065918 170 170 170
27.687500000000 14.109375000000 6.412002563477 173 173 173
27.671875000000 14.109375000000 6.357002258301 192 192 192
27.671875000000 14.109375000000 6.306999206543 191 191 191
27.609375000000 13.843750000000 6.618003845215 68 68 68
27.625000000000 13.828125000000 6.569000244141 141 141 141
27.656250000000 13.812500000000 6.534004211426 56 56 56
27.671875000000 13.796875000000 6.485000610352 194 194 194
27.656250000000 13.796875000000 6.431999206543 197 197 197
27.671875000000 13.796875000000 6.382003784180 215 215 215
27.656250000000 13.812500000000 6.326004028320 216 216 216
27.656250000000 13.796875000000 6.276000976563 117 117 117
27.609375000000 13.515625000000 6.590003967285 162 162 162
27.625000000000 13.515625000000 6.545997619629 18 18 18
27.656250000000 13.484375000000 6.507003784180 180 180 180
27.671875000000 13.484375000000 6.456001281738 170 170 170
27.671875000000 13.484375000000 6.408004760742 181 181 181
27.656250000000 13.484375000000 6.350997924805 213 213 213
27.656250000000 13.484375000000 6.299003601074 186 186 186
27.593750000000 13.218750000000 6.613998413086 98 98 98
27.578125000000 13.218750000000 6.556999206543 148 148 148
27.625000000000 13.187500000000 6.477005004883 25 25 25
27.625000000000 13.187500000000 6.424003601074 14 14 14
27.609375000000 13.187500000000 6.316001892090 12 12 12
27.656250000000 13.171875000000 6.274002075195 98 98 98
27.578125000000 12.890625000000 6.588005065918 162 162 162
27.640625000000 12.859375000000 6.295997619629 125 125 125
27.562500000000 12.593750000000 6.606002807617 148 148 148
27.578125000000 12.562500000000 6.565002441406 77 77 77
27.625000000000 12.531250000000 6.320999145508 83 83 83
27.546875000000 12.265625000000 6.625999450684 105 105 105
27.546875000000 12.265625000000 6.580001831055 119 119 119
27.609375000000 12.218750000000 6.291000366211 92 92 92
27.531250000000 11.953125000000 6.652000427246 13 13 13
27.546875000000 11.953125000000 6.604003906250 156 156 156
27.609375000000 11.906250000000 6.314002990723 131 131 131
27.500000000000 11.656250000000 6.616004943848 115 115 115
27.531250000000 11.625000000000 6.576004028320 60 60 60
27.515625000000 11.328125000000 6.648002624512 82 82 82
27.531250000000 11.312500000000 6.602005004883 91 91 91
27.515625000000 11.000000000000 6.675003051758 33 33 33
27.515625000000 11.000000000000 6.623001098633 124 124 124
27.500000000000 10.703125000000 6.640998840332 135 135 135
27.531250000000 10.359375000000 7.218002319336 19 19 19
27.531250000000 10.359375000000 7.164001464844 156 156 156
27.531250000000 10.359375000000 7.107002258301 151 151 151
27.531250000000 10.359375000000 7.051002502441 135 135 135
27.515625000000 10.375000000000 6.994003295898 127 127 127
27.531250000000 10.359375000000 6.944000244141 125 125 125
27.531250000000 10.359375000000 6.892997741699 121 121 121
27.531250000000 10.359375000000 6.838005065918 109 109 109
27.531250000000 10.359375000000 6.788002014160 101 101 101
27.500000000000 10.375000000000 6.721000671387 86 86 86
27.453125000000 10.390625000000 6.658004760742 125 125 125
27.531250000000 10.343750000000 6.635002136230 102 102 102
27.546875000000 10.343750000000 6.584999084473 21 21 21
27.234375000000 10.156250000000 4.263000488281 50 50 50
27.234375000000 10.156250000000 4.218002319336 102 102 102
27.234375000000 10.156250000000 4.174003601074 128 128 128
27.234375000000 10.171875000000 4.128997802734 144 144 144
27.218750000000 10.171875000000 4.083999633789 162 162 162
27.218750000000 10.171875000000 4.040000915527 170 170 170
27.218750000000 10.171875000000 3.995002746582 181 181 181
27.218750000000 10.171875000000 3.951004028320 183 183 183
27.187500000000 10.187500000000 3.906997680664 171 171 171
27.203125000000 10.171875000000 3.861999511719 177 177 177
27.187500000000 10.187500000000 3.818000793457 191 191 191
27.187500000000 10.187500000000 3.774002075195 195 195 195
27.187500000000 10.187500000000 3.730003356934 199 199 199
27.171875000000 10.187500000000 3.686004638672 201 201 201
27.171875000000 10.187500000000 3.641998291016 202 202 202
27.171875000000 10.187500000000 3.598999023438 205 205 205
27.156250000000 10.187500000000 3.555000305176 207 207 207
27.156250000000 10.187500000000 3.511001586914 212 212 212
27.171875000000 10.187500000000 3.467002868652 215 215 215
27.171875000000 10.187500000000 3.423004150391 221 221 221
27.156250000000 10.203125000000 3.380004882813 218 218 218
27.156250000000 10.187500000000 3.334999084473 205 205 205
27.156250000000 10.203125000000 3.291999816895 218 218 218
27.140625000000 10.203125000000 3.249000549316 222 222 222
27.140625000000 10.203125000000 3.204002380371 220 220 220
27.140625000000 10.203125000000 3.161003112793 221 221 221
27.140625000000 10.203125000000 3.117004394531 219 219 219
27.140625000000 10.203125000000 3.072998046875 216 216 216
27.125000000000 10.203125000000 3.029998779297 222 222 222
27.125000000000 10.203125000000 2.986000061035 222 222 222
27.125000000000 10.203125000000 2.942001342773 221 221 221
27.109375000000 10.203125000000 2.899002075195 214 214 214
27.109375000000 10.218750000000 2.855003356934 214 214 214
27.109375000000 10.203125000000 2.809997558594 213 213 213
27.093750000000 10.218750000000 2.767997741699 212 212 212
27.093750000000 10.218750000000 2.723999023438 210 210 210
27.093750000000 10.218750000000 2.679000854492 213 213 213
27.093750000000 10.218750000000 2.636001586914 210 210 210
27.093750000000 10.218750000000 2.592002868652 209 209 209
27.093750000000 10.218750000000 2.548004150391 205 205 205
27.078125000000 10.218750000000 2.503997802734 203 203 203
27.062500000000 10.234375000000 2.459999084473 204 204 204
27.062500000000 10.234375000000 2.416999816895 198 198 198
27.046875000000 10.234375000000 2.372001647949 197 197 197
27.046875000000 10.218750000000 2.327003479004 194 194 194
27.046875000000 10.234375000000 2.283004760742 200 200 200
27.046875000000 10.234375000000 2.238998413086 201 201 201
27.046875000000 10.234375000000 2.193000793457 191 191 191
27.031250000000 10.234375000000 2.150001525879 193 193 193
27.031250000000 10.234375000000 2.105003356934 191 191 191
27.031250000000 10.234375000000 2.061004638672 191 191 191
27.031250000000 10.234375000000 2.015998840332 191 191 191
27.031250000000 10.234375000000 1.971000671387 184 184 184
27.015625000000 10.234375000000 1.925003051758 189 189 189
27.015625000000 10.250000000000 1.881004333496 186 186 186
27.015625000000 10.250000000000 1.838005065918 187 187 187
27.015625000000 10.250000000000 1.790000915527 183 183 183
27.015625000000 10.250000000000 1.745002746582 184 184 184
27.015625000000 10.250000000000 1.697998046875 188 188 188
27.000000000000 10.250000000000 1.653999328613 189 189 189
27.000000000000 10.250000000000 1.609001159668 185 185 185
27.000000000000 10.250000000000 1.562004089355 188 188 188
27.000000000000 10.250000000000 1.516998291016 183 183 183
27.000000000000 10.250000000000 1.467002868652 182 182 182
26.984375000000 10.250000000000 1.422004699707 181 181 181
26.984375000000 10.250000000000 1.375999450684 184 184 184
26.984375000000 10.250000000000 1.333000183105 180 180 180
26.984375000000 10.250000000000 1.284004211426 179 179 179
26.968750000000 10.250000000000 1.236999511719 176 176 176
26.984375000000 10.250000000000 1.188003540039 172 172 172
26.968750000000 10.265625000000 1.144004821777 171 171 171
27.593750000000 18.515625000000 2.098999023438 142 142 142
27.593750000000 18.515625000000 2.147003173828 143 143 143
27.578125000000 18.515625000000 2.197998046875 142 142 142
27.593750000000 18.515625000000 2.241004943848 148 148 148
27.609375000000 18.531250000000 2.288002014160 152 152 152
27.593750000000 18.515625000000 2.335998535156 150 150 150
27.593750000000 18.515625000000 2.385002136230 156 156 156
27.593750000000 18.515625000000 2.430000305176 143 143 143
27.593750000000 18.515625000000 2.479003906250 150 150 150
27.609375000000 18.531250000000 2.524002075195 157 157 157
27.609375000000 18.531250000000 2.569000244141 156 156 156
27.609375000000 18.531250000000 2.614997863770 157 157 157
27.593750000000 18.515625000000 2.665000915527 159 159 159
27.609375000000 18.531250000000 2.708000183105 155 155 155
27.609375000000 18.531250000000 2.756004333496 160 160 160
27.593750000000 18.515625000000 2.805000305176 170 170 170
27.593750000000 18.515625000000 2.852005004883 176 176 176
27.578125000000 18.500000000000 2.900001525879 182 182 182
27.578125000000 18.515625000000 2.944000244141 180 180 180
27.578125000000 18.515625000000 2.989997863770 183 183 183
27.578125000000 18.500000000000 3.038002014160 189 189 189
27.578125000000 18.500000000000 3.083999633789 191 191 191
27.578125000000 18.515625000000 3.128997802734 192 192 192
27.562500000000 18.500000000000 3.175003051758 198 198 198
27.578125000000 18.500000000000 3.221000671387 201 201 201
27.578125000000 18.515625000000 3.265998840332 201 201 201
27.578125000000 18.515625000000 3.312004089355 197 197 197
27.578125000000 18.515625000000 3.357002258301 194 194 194
27.578125000000 18.515625000000 3.402999877930 199 199 199
27.578125000000 18.515625000000 3.447998046875 201 201 201
27.578125000000 18.515625000000 3.494003295898 203 203 203
27.578125000000 18.515625000000 3.540000915527 184 184 184
27.578125000000 18.515625000000 3.584999084473 184 184 184
27.609375000000 18.531250000000 3.630004882813 164 164 164
27.640625000000 18.546875000000 3.675003051758 158 158 158
27.640625000000 18.546875000000 3.721000671387 107 107 107
27.687500000000 18.562500000000 3.997001647949 127 127 127
27.609375000000 18.531250000000 4.041000366211 200 200 200
27.609375000000 18.531250000000 4.085998535156 187 187 187
27.609375000000 18.531250000000 4.132003784180 197 197 197
27.609375000000 18.531250000000 4.178001403809 200 200 200
27.609375000000 18.531250000000 4.223999023438 189 189 189
27.609375000000 18.531250000000 4.270004272461 184 184 184
27.625000000000 18.531250000000 4.316001892090 188 188 188
27.609375000000 18.531250000000 4.361999511719 188 188 188
27.625000000000 18.531250000000 4.408004760742 192 192 192
27.625000000000 18.531250000000 4.454002380371 182 182 182
27.625000000000 18.531250000000 4.500999450684 183 183 183
27.625000000000 18.531250000000 4.547004699707 188 188 188
27.687500000000 18.562500000000 4.598999023438 162 162 162
27.656250000000 18.562500000000 5.205001831055 177 177 177
27.671875000000 18.562500000000 5.255004882813 182 182 182
27.671875000000 18.562500000000 5.301002502441 182 182 182
27.671875000000 18.562500000000 5.349998474121 177 177 177
27.671875000000 18.562500000000 5.397003173828 178 178 178
27.671875000000 18.562500000000 5.444999694824 181 181 181
27.671875000000 18.562500000000 5.496002197266 182 182 182
27.703125000000 18.578125000000 5.843002319336 169 169 169
27.703125000000 18.578125000000 5.889999389648 172 172 172
27.718750000000 18.578125000000 5.944000244141 160 160 160
27.703125000000 18.578125000000 5.993003845215 157 157 157
27.718750000000 18.593750000000 6.044998168945 160 160 160
27.718750000000 18.593750000000 6.097000122070 161 161 161
27.734375000000 18.593750000000 6.150001525879 141 141 141
27.734375000000 18.593750000000 6.201004028320 145 145 145
27.734375000000 18.593750000000 6.251998901367 134 134 134
27.750000000000 18.593750000000 6.306999206543 132 132 132
27.750000000000 18.593750000000 6.357002258301 128 128 128
27.750000000000 18.609375000000 6.413002014160 116 116 116
27.750000000000 18.593750000000 6.459999084473 116 116 116
27.750000000000 18.593750000000 6.514999389648 117 117 117
27.765625000000 18.609375000000 6.569999694824 113 113 113
27.765625000000 18.609375000000 6.625000000000 107 107 107
27.781250000000 18.609375000000 6.679000854492 96 96 96
27.781250000000 18.625000000000 6.734001159668 93 93 93
27.765625000000 18.609375000000 6.779998779297 15 15 15
27.781250000000 18.625000000000 6.843002319336 60 60 60
27.796875000000 18.625000000000 6.899002075195 47 47 47
27.781250000000 18.625000000000 6.955001831055 26 26 26
27.796875000000 18.625000000000 7.005004882813 18 18 18
27.781250000000 18.625000000000 7.063003540039 7 7 7
27.734375000000 18.593750000000 5.172004699707 138 138 138
27.828125000000 18.328125000000 6.732002258301 104 104 104
27.796875000000 18.312500000000 6.766998291016 109 109 109
27.812500000000 18.000000000000 6.694999694824 25 25 25
27.781250000000 17.984375000000 6.737998962402 118 118 118
27.781250000000 17.671875000000 6.714004516602 136 136 136
27.765625000000 17.343750000000 6.686004638672 123 123 123
27.765625000000 17.328125000000 6.736999511719 27 27 27
27.750000000000 17.015625000000 6.658004760742 115 115 115
27.734375000000 17.015625000000 6.706001281738 103 103 103
27.781250000000 16.718750000000 6.333000183105 30 30 30
27.781250000000 16.718750000000 6.384002685547 45 45 45
27.750000000000 16.703125000000 6.634002685547 85 85 85
27.718750000000 16.687500000000 6.678001403809 141 141 141
27.765625000000 16.390625000000 6.355003356934 109 109 109
27.718750000000 16.359375000000 6.649002075195 151 151 151
27.765625000000 16.078125000000 6.327003479004 94 94 94
27.734375000000 16.046875000000 6.618003845215 119 119 119
27.734375000000 16.046875000000 6.668998718262 88 88 88
27.765625000000 15.750000000000 6.298004150391 29 29 29
27.765625000000 15.750000000000 6.348999023438 30 30 30
27.734375000000 15.734375000000 6.595001220703 90 90 90
27.703125000000 15.718750000000 6.635002136230 128 128 128
27.750000000000 15.421875000000 6.320999145508 84 84 84
27.734375000000 15.406250000000 6.573997497559 25 25 25
27.687500000000 15.390625000000 6.612998962402 141 141 141
27.750000000000 15.109375000000 6.300003051758 126 126 126
27.750000000000 15.109375000000 6.352005004883 204 204 204
27.750000000000 15.109375000000 6.404998779297 118 118 118
27.734375000000 15.093750000000 6.454002380371 143 143 143
27.734375000000 15.093750000000 6.505004882813 186 186 186
27.718750000000 15.093750000000 6.551002502441 19 19 19
27.671875000000 15.062500000000 6.586997985840 132 132 132
27.671875000000 15.062500000000 6.638999938965 57 57 57
27.718750000000 14.765625000000 6.274002075195 28 28 28
27.734375000000 14.765625000000 6.326004028320 193 193 193
27.718750000000 14.765625000000 6.376998901367 186 186 186
27.734375000000 14.765625000000 6.430999755859 179 179 179
27.734375000000 14.765625000000 6.483001708984 186 186 186
27.718750000000 14.765625000000 6.530998229980 138 138 138
27.671875000000 14.750000000000 6.567001342773 68 68 68
27.656250000000 14.734375000000 6.611000061035 143 143 143
27.703125000000 14.453125000000 6.298004150391 133 133 133
27.718750000000 14.453125000000 6.350997924805 194 194 194
27.718750000000 14.453125000000 6.403999328613 193 193 193
27.718750000000 14.453125000000 6.455001831055 192 192 192
27.718750000000 14.453125000000 6.508003234863 182 182 182
27.687500000000 14.437500000000 6.545997619629 52 52 52
27.640625000000 14.421875000000 6.583999633789 142 142 142
27.640625000000 14.421875000000 6.636001586914 64 64 64
27.703125000000 14.125000000000 6.274002075195 63 63 63
27.687500000000 14.125000000000 6.320999145508 200 200 200
27.703125000000 14.125000000000 6.375000000000 147 147 147
27.703125000000 14.125000000000 6.426002502441 206 206 206
27.687500000000 14.125000000000 6.475997924805 204 204 204
27.687500000000 14.125000000000 6.527000427246 117 117 117
27.640625000000 14.109375000000 6.562004089355 98 98 98
27.640625000000 14.078125000000 6.606002807617 121 121 121
27.671875000000 13.796875000000 6.295997619629 151 151 151
27.671875000000 13.796875000000 6.345001220703 199 199 199
27.671875000000 13.796875000000 6.396003723145 184 184 184
27.671875000000 13.796875000000 6.451004028320 207 207 207
27.671875000000 13.796875000000 6.500000000000 194 194 194
27.671875000000 13.796875000000 6.543998718262 11 11 11
27.640625000000 13.765625000000 6.584999084473 156 156 156
27.671875000000 13.468750000000 6.272003173828 84 84 84
27.671875000000 13.468750000000 6.323997497559 203 203 203
27.671875000000 13.468750000000 6.374000549316 170 170 170
27.687500000000 13.468750000000 6.430000305176 149 149 149
27.687500000000 13.468750000000 6.479003906250 198 198 198
27.671875000000 13.468750000000 6.526000976563 107 107 107
27.625000000000 13.453125000000 6.564002990723 102 102 102
27.609375000000 13.437500000000 6.610000610352 122 122 122
27.656250000000 13.140625000000 6.299003601074 121 121 121
27.671875000000 13.156250000000 6.355003356934 119 119 119
27.671875000000 13.156250000000 6.406997680664 130 130 130
27.671875000000 13.156250000000 6.456001281738 133 133 133
27.671875000000 13.156250000000 6.509002685547 130 130 130
27.671875000000 13.156250000000 6.557998657227 47 47 47
27.609375000000 13.125000000000 6.586997985840 153 153 153
27.640625000000 12.828125000000 6.275001525879 50 50 50
27.640625000000 12.812500000000 6.321998596191 49 49 49
27.609375000000 12.796875000000 6.569999694824 92 92 92
27.578125000000 12.781250000000 6.610000610352 123 123 123
27.625000000000 12.500000000000 6.294998168945 114 114 114
27.578125000000 12.484375000000 6.586997985840 143 143 143
27.562500000000 12.468750000000 6.631004333496 62 62 62
27.609375000000 12.171875000000 6.320999145508 106 106 106
27.593750000000 12.171875000000 6.568000793457 15 15 15
27.562500000000 12.140625000000 6.607002258301 158 158 158
27.609375000000 11.859375000000 6.298004150391 79 79 79
27.593750000000 11.843750000000 6.344001770020 9 9 9
27.562500000000 11.828125000000 6.585998535156 99 99 99
27.546875000000 11.828125000000 6.632003784180 138 138 138
27.546875000000 11.500000000000 6.611000061035 113 113 113
27.531250000000 11.484375000000 6.653999328613 12 12 12
27.515625000000 11.171875000000 6.632003784180 131 131 131
27.531250000000 10.859375000000 6.611999511719 22 22 22
27.500000000000 10.843750000000 6.652000427246 131 131 131
26.968750000000 10.234375000000 1.197998046875 165 165 165
26.984375000000 10.250000000000 1.241004943848 173 173 173
26.984375000000 10.250000000000 1.289001464844 173 173 173
27.000000000000 10.250000000000 1.332000732422 170 170 170
27.000000000000 10.250000000000 1.375000000000 174 174 174
27.000000000000 10.250000000000 1.425003051758 171 171 171
27.000000000000 10.250000000000 1.470001220703 169 169 169
27.015625000000 10.265625000000 1.514999389648 171 171 171
27.015625000000 10.265625000000 1.556999206543 175 175 175
27.015625000000 10.265625000000 1.604003906250 176 176 176
27.031250000000 10.265625000000 1.647003173828 170 170 170
27.046875000000 10.265625000000 1.690002441406 175 175 175
27.046875000000 10.265625000000 1.735000610352 185 185 185
27.093750000000 10.296875000000 1.763999938965 243 243 243
27.031250000000 10.265625000000 1.829002380371 153 153 153
27.046875000000 10.281250000000 1.872001647949 150 150 150
27.046875000000 10.265625000000 1.917999267578 146 146 146
27.062500000000 10.281250000000 1.959999084473 144 144 144
27.062500000000 10.281250000000 2.001998901367 141 141 141
27.078125000000 10.296875000000 2.047004699707 134 134 134
27.078125000000 10.296875000000 2.092002868652 113 113 113
27.078125000000 10.296875000000 2.136001586914 110 110 110
27.078125000000 10.296875000000 2.179000854492 98 98 98
27.093750000000 10.296875000000 2.222000122070 59 59 59
27.109375000000 10.296875000000 2.263999938965 13 13 13
27.515625000000 10.531250000000 6.630004882813 71 71 71
27.484375000000 10.531250000000 6.672004699707 116 116 116
27.375000000000 10.125000000000 4.389999389648 16 16 16
27.359375000000 10.125000000000 4.433998107910 57 57 57
27.359375000000 10.125000000000 4.478004455566 78 78 78
27.375000000000 10.125000000000 4.524002075195 101 101 101
27.375000000000 10.125000000000 4.569999694824 113 113 113
27.375000000000 10.140625000000 4.614997863770 123 123 123
27.375000000000 10.125000000000 4.660003662109 131 131 131
27.375000000000 10.125000000000 4.705001831055 132 132 132
27.375000000000 10.140625000000 4.750999450684 134 134 134
27.375000000000 10.140625000000 4.795997619629 141 141 141
27.375000000000 10.125000000000 4.841003417969 146 146 146
27.375000000000 10.140625000000 4.887001037598 144 144 144
27.375000000000 10.140625000000 4.932998657227 142 142 142
27.375000000000 10.140625000000 4.980003356934 147 147 147
27.375000000000 10.140625000000 5.025001525879 146 146 146
27.375000000000 10.140625000000 5.071998596191 152 152 152
27.375000000000 10.140625000000 5.117004394531 155 155 155
27.375000000000 10.140625000000 5.164001464844 158 158 158
27.375000000000 10.140625000000 5.209999084473 159 159 159
27.390625000000 10.156250000000 5.259002685547 160 160 160
27.375000000000 10.140625000000 5.303001403809 163 163 163
27.390625000000 10.156250000000 5.350997924805 166 166 166
27.390625000000 10.156250000000 5.397003173828 165 165 165
27.390625000000 10.156250000000 5.444999694824 162 162 162
27.390625000000 10.156250000000 5.493003845215 166 166 166
27.406250000000 10.156250000000 5.542999267578 164 164 164
27.406250000000 10.156250000000 5.588005065918 164 164 164
27.406250000000 10.156250000000 5.637001037598 164 164 164
27.406250000000 10.156250000000 5.682998657227 161 161 161
27.406250000000 10.156250000000 5.733001708984 164 164 164
27.421875000000 10.156250000000 5.781997680664 161 161 161
27.421875000000 10.156250000000 5.831001281738 158 158 158
27.421875000000 10.156250000000 5.880004882813 153 153 153
27.421875000000 10.156250000000 5.929000854492 155 155 155
27.421875000000 10.156250000000 5.975997924805 155 155 155
27.421875000000 10.156250000000 6.027000427246 159 159 159
27.421875000000 10.156250000000 6.075004577637 159 159 159
27.453125000000 10.171875000000 6.130004882813 158 158 158
27.437500000000 10.171875000000 6.174003601074 156 156 156
27.453125000000 10.171875000000 6.229003906250 158 158 158
27.453125000000 10.171875000000 6.277999877930 151 151 151
27.437500000000 10.171875000000 6.326004028320 147 147 147
27.437500000000 10.187500000000 6.380004882813 146 146 146
27.453125000000 10.187500000000 6.432998657227 147 147 147
27.437500000000 10.187500000000 6.482002258301 143 143 143
27.453125000000 10.187500000000 6.538002014160 154 154 154
27.468750000000 10.203125000000 6.591003417969 150 150 150
27.468750000000 10.203125000000 6.641998291016 147 147 147
27.453125000000 10.187500000000 6.692001342773 135 135 135
27.468750000000 10.203125000000 6.746002197266 158 158 158
27.468750000000 10.203125000000 6.795997619629 155 155 155
27.484375000000 10.203125000000 6.854003906250 152 152 152
27.468750000000 10.203125000000 6.903999328613 158 158 158
27.484375000000 10.203125000000 6.959999084473 153 153 153
27.484375000000 10.203125000000 7.013000488281 151 151 151
27.484375000000 10.203125000000 7.068000793457 150 150 150
27.500000000000 10.203125000000 7.125000000000 155 155 155
27.500000000000 10.218750000000 7.181999206543 160 160 160
27.484375000000 10.203125000000 7.227005004883 67 67 67
27.843750000000 18.359375000000 6.698997497559 97 97 97
27.796875000000 18.359375000000 6.724998474121 143 143 143
27.812500000000 18.031250000000 6.661003112793 13 13 13
27.765625000000 18.031250000000 6.692001342773 142 142 142
27.765625000000 17.718750000000 6.667999267578 150 150 150
27.765625000000 17.390625000000 6.642997741699 144 144 144
27.750000000000 17.390625000000 6.680999755859 94 94 94
27.765625000000 17.078125000000 6.622001647949 113 113 113
27.734375000000 17.078125000000 6.659004211426 151 151 151
27.796875000000 16.750000000000 6.322998046875 106 106 106
27.781250000000 16.750000000000 6.369003295898 15 15 15
27.781250000000 16.750000000000 6.602005004883 39 39 39
27.718750000000 16.750000000000 6.628997802734 171 171 171
27.781250000000 16.437500000000 6.297004699707 40 40 40
27.765625000000 16.437500000000 6.338005065918 95 95 95
27.734375000000 16.437500000000 6.606002807617 164 164 164
27.718750000000 16.437500000000 6.649002075195 79 79 79
27.765625000000 16.109375000000 6.305999755859 122 122 122
27.734375000000 16.109375000000 6.576004028320 121 121 121
27.718750000000 16.125000000000 6.617004394531 156 156 156
27.750000000000 15.796875000000 6.280998229980 102 102 102
27.750000000000 15.796875000000 6.329002380371 94 94 94
27.750000000000 15.796875000000 6.376998901367 99 99 99
27.750000000000 15.796875000000 6.423004150391 97 97 97
27.750000000000 15.796875000000 6.472999572754 104 104 104
27.750000000000 15.796875000000 6.520004272461 112 112 112
27.734375000000 15.796875000000 6.558998107910 116 116 116
27.703125000000 15.796875000000 6.594001770020 154 154 154
27.687500000000 15.796875000000 6.637001037598 23 23 23
27.765625000000 15.468750000000 6.265998840332 19 19 19
27.734375000000 15.484375000000 6.301002502441 20 20 20
27.687500000000 15.484375000000 6.567001342773 164 164 164
27.687500000000 15.484375000000 6.614997863770 67 67 67
27.734375000000 15.156250000000 6.279998779297 164 164 164
27.734375000000 15.156250000000 6.327003479004 209 209 209
27.734375000000 15.156250000000 6.375000000000 115 115 115
27.734375000000 15.156250000000 6.424003601074 150 150 150
27.734375000000 15.156250000000 6.472999572754 190 190 190
27.734375000000 15.156250000000 6.515998840332 91 91 91
27.703125000000 15.156250000000 6.552001953125 113 113 113
27.671875000000 15.156250000000 6.586997985840 155 155 155
27.718750000000 14.828125000000 6.255004882813 70 70 70
27.703125000000 14.828125000000 6.298004150391 202 202 202
27.718750000000 14.828125000000 6.346000671387 175 175 175
27.718750000000 14.828125000000 6.392997741699 164 164 164
27.734375000000 14.843750000000 6.446998596191 87 87 87
27.718750000000 14.828125000000 6.491004943848 171 171 171
27.703125000000 14.843750000000 6.533004760742 14 14 14
27.671875000000 14.843750000000 6.562004089355 171 171 171
27.656250000000 14.843750000000 6.608001708984 26 26 26
27.718750000000 14.515625000000 6.272003173828 169 169 169
27.687500000000 14.515625000000 6.315002441406 201 201 201
27.718750000000 14.531250000000 6.369003295898 193 193 193
27.718750000000 14.515625000000 6.412002563477 207 207 207
27.718750000000 14.515625000000 6.459999084473 203 203 203
27.718750000000 14.515625000000 6.503997802734 92 92 92
27.671875000000 14.531250000000 6.540000915527 134 134 134
27.640625000000 14.531250000000 6.577003479004 142 142 142
27.703125000000 14.203125000000 6.245002746582 102 102 102
27.703125000000 14.203125000000 6.292999267578 207 207 207
27.687500000000 14.203125000000 6.335998535156 164 164 164
27.703125000000 14.203125000000 6.388999938965 151 151 151
27.703125000000 14.203125000000 6.436004638672 164 164 164
27.703125000000 14.203125000000 6.482002258301 172 172 172
27.656250000000 14.203125000000 6.515998840332 31 31 31
27.625000000000 14.203125000000 6.550003051758 174 174 174
27.687500000000 13.890625000000 6.267997741699 174 174 174
27.687500000000 13.890625000000 6.312004089355 212 212 212
27.687500000000 13.890625000000 6.362998962402 144 144 144
27.687500000000 13.890625000000 6.408004760742 144 144 144
27.687500000000 13.890625000000 6.456001281738 203 203 203
27.687500000000 13.890625000000 6.503997802734 95 95 95
27.640625000000 13.890625000000 6.530998229980 141 141 141
27.625000000000 13.875000000000 6.571998596191 132 132 132
27.671875000000 13.546875000000 6.247001647949 104 104 104
27.656250000000 13.562500000000 6.287002563477 209 209 209
27.671875000000 13.562500000000 6.335998535156 198 198 198
27.671875000000 13.562500000000 6.382003784180 201 201 201
27.687500000000 13.562500000000 6.434997558594 190 190 190
27.687500000000 13.562500000000 6.482002258301 179 179 179
27.656250000000 13.562500000000 6.517997741699 25 25 25
27.609375000000 13.562500000000 6.550003051758 176 176 176
27.656250000000 13.234375000000 6.266998291016 180 180 180
27.656250000000 13.234375000000 6.312004089355 208 208 208
27.656250000000 13.234375000000 6.360000610352 208 208 208
27.656250000000 13.234375000000 6.408004760742 211 211 211
27.656250000000 13.234375000000 6.455001831055 208 208 208
27.671875000000 13.250000000000 6.505004882813 74 74 74
27.609375000000 13.234375000000 6.530998229980 122 122 122
27.593750000000 13.234375000000 6.571998596191 143 143 143
27.656250000000 12.921875000000 6.243003845215 27 27 27
27.640625000000 12.921875000000 6.281997680664 81 81 81
27.578125000000 12.921875000000 6.541999816895 166 166 166
