22.421875000000 17.312500000000 3.936996459961 128 128 128
22.562500000000 17.507812500000 6.767997741699 67 67 67
22.515625000000 17.531250000000 6.711997985840 112 112 112
22.546875000000 17.515625000000 6.679000854492 128 128 128
22.671875000000 17.445312500000 6.663002014160 123 123 123
22.546875000000 17.507812500000 6.596000671387 97 97 97
22.578125000000 17.492187500000 6.557998657227 104 104 104
22.593750000000 17.492187500000 6.518997192383 94 94 94
22.640625000000 17.468750000000 6.485000610352 14 14 14
22.656250000000 17.453125000000 6.235000610352 144 144 144
22.656250000000 17.453125000000 6.192001342773 175 175 175
22.656250000000 17.453125000000 6.151000976563 171 171 171
22.640625000000 17.468750000000 6.108001708984 167 167 167
22.640625000000 17.468750000000 6.065002441406 170 170 170
22.625000000000 17.468750000000 6.023002624512 165 165 165
22.640625000000 17.468750000000 5.982002258301 171 171 171
22.625000000000 17.476562500000 5.939002990723 168 168 168
22.625000000000 17.476562500000 5.898002624512 147 147 147
22.781250000000 17.390625000000 5.363998413086 154 154 154
22.781250000000 17.390625000000 5.320999145508 161 161 161
22.765625000000 17.406250000000 5.278999328613 167 167 167
22.750000000000 17.414062500000 5.237998962402 172 172 172
22.750000000000 17.406250000000 5.195999145508 166 166 166
22.750000000000 17.414062500000 5.153999328613 164 164 164
22.734375000000 17.429687500000 5.111999511719 179 179 179
22.734375000000 17.421875000000 5.069999694824 167 167 167
22.734375000000 17.429687500000 5.028999328613 160 160 160
22.718750000000 17.429687500000 4.986999511719 174 174 174
22.718750000000 17.429687500000 4.944999694824 180 180 180
22.734375000000 17.429687500000 4.902999877930 169 169 169
22.734375000000 17.429687500000 4.861000061035 172 172 172
22.718750000000 17.429687500000 4.819999694824 172 172 172
22.718750000000 17.429687500000 4.777999877930 155 155 155
22.703125000000 17.437500000000 4.736999511719 124 124 124
22.531250000000 17.546875000000 4.385002136230 75 75 75
22.484375000000 17.570312500000 4.349998474121 108 108 108
22.468750000000 17.570312500000 4.310997009277 129 129 129
22.468750000000 17.578125000000 4.270996093750 131 131 131
22.437500000000 17.593750000000 4.234001159668 133 133 133
22.453125000000 17.593750000000 4.192001342773 130 130 130
22.453125000000 17.593750000000 4.152000427246 122 122 122
22.437500000000 17.593750000000 4.111999511719 123 123 123
22.437500000000 17.593750000000 4.069999694824 125 125 125
22.437500000000 17.601562500000 4.029998779297 121 121 121
22.453125000000 17.593750000000 3.986000061035 88 88 88
22.453125000000 17.593750000000 3.943000793457 44 44 44
22.671875000000 17.742187500000 6.388999938965 166 166 166
22.687500000000 17.750000000000 6.346000671387 177 177 177
22.671875000000 17.757812500000 6.302001953125 179 179 179
22.671875000000 17.757812500000 6.260002136230 176 176 176
22.687500000000 17.750000000000 6.219001770020 180 180 180
22.671875000000 17.757812500000 6.176002502441 152 152 152
22.656250000000 17.765625000000 5.963996887207 34 34 34
22.656250000000 17.765625000000 5.921997070313 171 171 171
22.656250000000 17.765625000000 5.880996704102 175 175 175
22.640625000000 17.773437500000 5.837997436523 173 173 173
22.640625000000 17.773437500000 5.796997070313 177 177 177
22.656250000000 17.773437500000 5.755996704102 175 175 175
22.640625000000 17.773437500000 5.713996887207 165 165 165
22.796875000000 17.687500000000 5.302001953125 29 29 29
22.812500000000 17.679687500000 5.260002136230 120 120 120
22.796875000000 17.679687500000 5.217002868652 130 130 130
22.796875000000 17.687500000000 5.175003051758 131 131 131
22.781250000000 17.695312500000 5.133003234863 111 111 111
22.781250000000 17.695312500000 5.091003417969 17 17 17
22.781250000000 17.117187500000 3.972000122070 113 113 113
22.765625000000 17.117187500000 4.014999389648 155 155 155
22.781250000000 17.117187500000 4.055999755859 160 160 160
22.781250000000 17.125000000000 4.098999023438 160 160 160
22.781250000000 17.125000000000 4.140998840332 158 158 158
22.781250000000 17.125000000000 4.183998107910 162 162 162
22.796875000000 17.125000000000 4.224998474121 159 159 159
22.781250000000 17.132812500000 4.267997741699 136 136 136
22.781250000000 17.117187500000 4.942001342773 33 33 33
22.687500000000 17.062500000000 4.988998413086 111 111 111
22.687500000000 17.062500000000 5.028999328613 142 142 142
22.718750000000 17.062500000000 5.069999694824 148 148 148
22.687500000000 17.062500000000 5.111000061035 139 139 139
22.718750000000 17.062500000000 5.152000427246 139 139 139
22.687500000000 17.062500000000 5.193000793457 143 143 143
22.718750000000 17.062500000000 5.234001159668 140 140 140
22.718750000000 17.070312500000 5.275001525879 133 133 133
22.718750000000 17.085937500000 5.316001892090 135 135 135
22.718750000000 17.078125000000 5.357002258301 130 130 130
22.609375000000 17.015625000000 5.759002685547 82 82 82
22.625000000000 17.007812500000 5.800003051758 181 181 181
22.625000000000 17.015625000000 5.841003417969 191 191 191
22.625000000000 17.007812500000 5.880996704102 179 179 179
22.609375000000 17.015625000000 5.920997619629 197 197 197
22.609375000000 17.015625000000 5.961997985840 189 189 189
22.625000000000 17.015625000000 6.002998352051 107 107 107
22.531250000000 16.968750000000 6.195999145508 84 84 84
22.515625000000 16.960937500000 6.233001708984 157 157 157
22.515625000000 16.960937500000 6.272003173828 173 173 173
22.500000000000 16.945312500000 6.309997558594 192 192 192
22.484375000000 16.937500000000 6.347999572754 139 139 139
22.484375000000 16.929687500000 6.387001037598 139 139 139
22.453125000000 16.929687500000 6.425003051758 143 143 143
22.437500000000 16.914062500000 6.460998535156 123 123 123
22.484375000000 17.242187500000 3.388999938965 156 156 156
22.484375000000 17.250000000000 3.428001403809 152 152 152
22.500000000000 17.250000000000 3.469001770020 149 149 149
22.500000000000 17.257812500000 3.886001586914 155 155 155
22.515625000000 17.265625000000 3.925003051758 165 165 165
22.531250000000 17.273437500000 3.966003417969 164 164 164
22.531250000000 17.273437500000 4.005996704102 159 159 159
22.531250000000 17.273437500000 4.049003601074 164 164 164
22.531250000000 17.273437500000 4.089996337891 164 164 164
22.531250000000 17.273437500000 4.129997253418 161 161 161
22.531250000000 17.273437500000 4.170997619629 162 162 162
22.531250000000 17.273437500000 4.210998535156 159 159 159
22.531250000000 17.273437500000 4.251998901367 164 164 164
22.531250000000 17.281250000000 4.291999816895 163 163 163
22.531250000000 17.281250000000 4.333000183105 162 162 162
22.546875000000 17.281250000000 4.371002197266 160 160 160
22.546875000000 17.281250000000 4.413002014160 161 161 161
22.546875000000 17.273437500000 4.454002380371 145 145 145
22.546875000000 17.281250000000 4.494003295898 166 166 166
22.546875000000 17.281250000000 4.532997131348 164 164 164
22.546875000000 17.289062500000 4.572998046875 167 167 167
22.546875000000 17.281250000000 4.614997863770 158 158 158
22.546875000000 17.289062500000 4.653999328613 158 158 158
22.562500000000 17.289062500000 4.694000244141 166 166 166
22.546875000000 17.289062500000 4.734001159668 162 162 162
22.562500000000 17.296875000000 4.773002624512 161 161 161
22.578125000000 17.304687500000 4.813003540039 162 162 162
22.562500000000 17.296875000000 4.853996276855 161 161 161
22.562500000000 17.296875000000 4.893997192383 161 161 161
22.578125000000 17.304687500000 4.932998657227 160 160 160
22.562500000000 17.296875000000 4.973999023438 159 159 159
22.562500000000 17.296875000000 5.013999938965 158 158 158
22.578125000000 17.304687500000 5.054000854492 161 161 161
22.562500000000 17.304687500000 5.094001770020 159 159 159
22.578125000000 17.304687500000 5.134002685547 162 162 162
22.578125000000 17.312500000000 5.174003601074 156 156 156
22.578125000000 17.312500000000 5.213996887207 160 160 160
22.578125000000 17.304687500000 5.254997253418 162 162 162
22.593750000000 17.312500000000 5.294998168945 160 160 160
22.593750000000 17.312500000000 5.334999084473 162 162 162
22.593750000000 17.312500000000 5.375000000000 158 158 158
22.578125000000 17.312500000000 5.415000915527 161 161 161
22.593750000000 17.312500000000 5.455001831055 157 157 157
22.593750000000 17.312500000000 5.496002197266 155 155 155
22.593750000000 17.312500000000 5.536003112793 161 161 161
22.593750000000 17.312500000000 5.575996398926 156 156 156
22.609375000000 17.320312500000 5.616996765137 160 160 160
22.609375000000 17.328125000000 5.657997131348 163 163 163
22.593750000000 17.320312500000 5.696998596191 160 160 160
22.593750000000 17.320312500000 5.737998962402 162 162 162
22.609375000000 17.328125000000 5.778999328613 159 159 159
22.609375000000 17.328125000000 5.819999694824 159 159 159
22.609375000000 17.328125000000 5.860000610352 160 160 160
22.609375000000 17.328125000000 5.901000976563 160 160 160
22.609375000000 17.328125000000 5.941001892090 155 155 155
22.640625000000 17.328125000000 5.984001159668 154 154 154
22.640625000000 17.328125000000 6.024002075195 153 153 153
22.640625000000 17.328125000000 6.065002441406 158 158 158
22.640625000000 17.328125000000 6.106002807617 152 152 152
22.609375000000 17.335937500000 6.145996093750 153 153 153
22.609375000000 17.335937500000 6.186996459961 154 154 154
22.640625000000 17.335937500000 6.230003356934 153 153 153
22.640625000000 17.335937500000 6.270996093750 144 144 144
22.609375000000 17.328125000000 6.309997558594 147 147 147
22.578125000000 17.304687500000 6.344001770020 184 184 184
22.593750000000 17.312500000000 6.388000488281 134 134 134
22.546875000000 17.289062500000 6.419998168945 161 161 161
22.546875000000 17.289062500000 6.461997985840 159 159 159
22.562500000000 17.304687500000 6.506996154785 125 125 125
22.531250000000 17.281250000000 6.541000366211 164 164 164
22.515625000000 17.273437500000 6.578002929688 154 154 154
22.562500000000 17.296875000000 6.628997802734 138 138 138
22.562500000000 17.296875000000 6.671997070313 131 131 131
22.453125000000 17.250000000000 6.689002990723 120 120 120
22.546875000000 17.281250000000 6.749000549316 105 105 105
22.468750000000 17.562500000000 3.919998168945 87 87 87
22.484375000000 17.570312500000 3.958999633789 162 162 162
22.468750000000 17.562500000000 4.000999450684 165 165 165
22.484375000000 17.570312500000 4.040000915527 164 164 164
22.484375000000 17.570312500000 4.082000732422 163 163 163
22.484375000000 17.570312500000 4.122001647949 166 166 166
22.484375000000 17.578125000000 4.161003112793 163 163 163
22.484375000000 17.578125000000 4.202003479004 166 166 166
22.484375000000 17.578125000000 4.242996215820 167 167 167
22.484375000000 17.578125000000 4.282997131348 166 166 166
22.484375000000 17.570312500000 4.323997497559 136 136 136
22.640625000000 17.664062500000 5.766998291016 138 138 138
22.640625000000 17.664062500000 5.807998657227 172 172 172
22.640625000000 17.664062500000 5.848999023438 177 177 177
22.656250000000 17.671875000000 5.889999389648 173 173 173
22.671875000000 17.664062500000 5.931999206543 175 175 175
22.640625000000 17.664062500000 5.972000122070 174 174 174
22.656250000000 17.671875000000 6.013000488281 48 48 48
22.687500000000 17.679687500000 6.138999938965 145 145 145
22.687500000000 17.679687500000 6.180999755859 166 166 166
22.687500000000 17.679687500000 6.222000122070 166 166 166
22.671875000000 17.679687500000 6.263000488281 167 167 167
22.687500000000 17.687500000000 6.306999206543 169 169 169
22.687500000000 17.687500000000 6.348999023438 157 157 157
22.515625000000 17.593750000000 6.647003173828 55 55 55
22.656250000000 17.992187500000 5.791000366211 109 109 109
22.562500000000 8.156250000000 5.906997680664 129 129 129
22.562500000000 8.148437500000 5.945999145508 173 173 173
22.562500000000 8.156250000000 5.986000061035 197 197 197
22.562500000000 8.156250000000 6.026000976563 185 185 185
22.562500000000 8.156250000000 6.065002441406 120 120 120
22.546875000000 8.156250000000 6.466003417969 88 88 88
22.546875000000 8.156250000000 6.505996704102 186 186 186
22.578125000000 8.164062500000 6.546997070313 191 191 191
22.546875000000 8.156250000000 6.586997985840 186 186 186
22.578125000000 8.164062500000 6.629997253418 171 171 171
22.546875000000 8.156250000000 6.667999267578 77 77 77
22.687500000000 8.515625000000 3.938003540039 156 156 156
22.687500000000 8.523437500000 4.353996276855 66 66 66
22.687500000000 8.523437500000 4.394996643066 149 149 149
22.687500000000 8.523437500000 4.435997009277 164 164 164
22.687500000000 8.515625000000 4.518997192383 164 164 164
22.687500000000 8.531250000000 4.639999389648 161 161 161
22.687500000000 8.531250000000 4.680999755859 156 156 156
22.687500000000 8.523437500000 4.722999572754 83 83 83
22.687500000000 8.523437500000 5.045997619629 87 87 87
22.687500000000 8.531250000000 5.085998535156 113 113 113
22.687500000000 8.531250000000 5.126998901367 122 122 122
22.671875000000 8.523437500000 5.166999816895 124 124 124
22.687500000000 8.531250000000 5.207000732422 122 122 122
22.687500000000 8.531250000000 5.248001098633 161 161 161
22.671875000000 8.515625000000 5.288002014160 168 168 168
22.656250000000 8.507812500000 5.328002929688 90 90 90
22.656250000000 8.515625000000 5.367996215820 105 105 105
22.671875000000 8.523437500000 5.407997131348 167 167 167
22.687500000000 8.546875000000 5.448997497559 125 125 125
22.687500000000 8.546875000000 5.488998413086 117 117 117
22.703125000000 8.539062500000 5.529998779297 115 115 115
22.546875000000 8.460937500000 6.000000000000 137 137 137
22.531250000000 8.460937500000 6.039001464844 183 183 183
22.546875000000 8.468750000000 6.080001831055 195 195 195
22.546875000000 8.468750000000 6.119003295898 182 182 182
22.546875000000 8.468750000000 6.158996582031 198 198 198
22.546875000000 8.468750000000 6.198997497559 183 183 183
22.546875000000 8.468750000000 6.238998413086 132 132 132
22.562500000000 8.476562500000 6.280998229980 19 19 19
22.531250000000 8.468750000000 6.318000793457 180 180 180
22.546875000000 8.468750000000 6.358001708984 195 195 195
22.546875000000 8.468750000000 6.399002075195 187 187 187
22.531250000000 8.468750000000 6.438003540039 193 193 193
22.531250000000 8.468750000000 6.478996276855 188 188 188
22.546875000000 8.476562500000 6.519996643066 164 164 164
22.531250000000 8.726562500000 3.280998229980 173 173 173
22.531250000000 8.718750000000 3.328002929688 177 177 177
22.531250000000 8.718750000000 3.371002197266 213 213 213
22.484375000000 8.695312500000 3.429000854492 131 131 131
22.500000000000 8.703125000000 3.466003417969 138 138 138
22.500000000000 8.710937500000 3.504997253418 219 219 219
22.484375000000 8.703125000000 3.552001953125 138 138 138
22.515625000000 8.726562500000 3.583000183105 227 227 227
22.531250000000 8.726562500000 3.624000549316 228 228 228
22.531250000000 8.734375000000 3.663002014160 229 229 229
22.515625000000 8.734375000000 3.708000183105 216 216 216
22.515625000000 8.734375000000 3.749000549316 217 217 217
22.546875000000 8.742187500000 3.784996032715 245 245 245
22.484375000000 8.695312500000 3.845001220703 148 148 148
22.468750000000 8.703125000000 3.887001037598 150 150 150
22.484375000000 8.703125000000 3.926002502441 161 161 161
22.484375000000 8.703125000000 3.968002319336 162 162 162
22.484375000000 8.703125000000 4.008003234863 167 167 167
22.484375000000 8.703125000000 4.049003601074 170 170 170
22.484375000000 8.703125000000 4.087997436523 170 170 170
22.484375000000 8.703125000000 4.128997802734 173 173 173
22.484375000000 8.703125000000 4.168998718262 126 126 126
22.484375000000 8.710937500000 4.208000183105 173 173 173
22.484375000000 8.710937500000 4.248001098633 172 172 172
22.484375000000 8.710937500000 4.288002014160 173 173 173
22.484375000000 8.703125000000 4.330001831055 173 173 173
22.484375000000 8.710937500000 4.367996215820 170 170 170
22.484375000000 8.710937500000 4.407997131348 175 175 175
22.484375000000 8.710937500000 4.447998046875 173 173 173
22.484375000000 8.710937500000 4.487998962402 171 171 171
22.484375000000 8.710937500000 4.527000427246 169 169 169
22.484375000000 8.710937500000 4.566001892090 166 166 166
22.484375000000 8.718750000000 4.606002807617 169 169 169
22.484375000000 8.710937500000 4.644996643066 165 165 165
22.484375000000 8.710937500000 4.684997558594 163 163 163
22.484375000000 8.710937500000 4.723999023438 138 138 138
22.484375000000 8.718750000000 4.763000488281 166 166 166
22.484375000000 8.718750000000 4.803001403809 169 169 169
22.484375000000 8.718750000000 4.842002868652 167 167 167
22.468750000000 8.718750000000 4.881996154785 166 166 166
22.484375000000 8.718750000000 4.919998168945 167 167 167
22.468750000000 8.718750000000 4.959999084473 170 170 170
22.468750000000 8.718750000000 4.999000549316 165 165 165
22.468750000000 8.726562500000 5.037002563477 162 162 162
22.468750000000 8.718750000000 5.077003479004 156 156 156
22.468750000000 8.726562500000 5.114997863770 155 155 155
22.468750000000 8.718750000000 5.154998779297 157 157 157
22.468750000000 8.726562500000 5.193000793457 152 152 152
22.453125000000 8.718750000000 5.233001708984 147 147 147
22.453125000000 8.718750000000 5.270996093750 149 149 149
22.453125000000 8.718750000000 5.309997558594 147 147 147
22.453125000000 8.710937500000 5.348999023438 148 148 148
22.453125000000 8.710937500000 5.388000488281 144 144 144
22.437500000000 8.710937500000 5.426002502441 146 146 146
22.437500000000 8.710937500000 5.464996337891 146 146 146
22.453125000000 8.710937500000 5.503997802734 152 152 152
22.453125000000 8.710937500000 5.541999816895 147 147 147
22.437500000000 8.710937500000 5.581001281738 149 149 149
22.421875000000 8.703125000000 5.619003295898 144 144 144
22.421875000000 8.710937500000 5.657997131348 146 146 146
22.437500000000 8.703125000000 5.695999145508 153 153 153
22.421875000000 8.703125000000 5.735000610352 154 154 154
22.437500000000 8.703125000000 5.774002075195 150 150 150
22.421875000000 8.703125000000 5.811996459961 152 152 152
22.421875000000 8.703125000000 5.850997924805 153 153 153
22.437500000000 8.703125000000 5.889999389648 149 149 149
22.437500000000 8.703125000000 5.929000854492 147 147 147
22.437500000000 8.710937500000 5.968002319336 147 147 147
22.437500000000 8.710937500000 6.006996154785 142 142 142
22.437500000000 8.710937500000 6.045997619629 151 151 151
22.421875000000 8.710937500000 6.083999633789 139 139 139
22.421875000000 8.710937500000 6.123001098633 130 130 130
22.406250000000 8.703125000000 6.159996032715 174 174 174
22.421875000000 8.710937500000 6.199996948242 170 170 170
22.421875000000 8.710937500000 6.238998413086 146 146 146
22.421875000000 8.710937500000 6.278999328613 140 140 140
22.421875000000 8.710937500000 6.318000793457 138 138 138
22.421875000000 8.710937500000 6.356002807617 192 192 192
22.421875000000 8.718750000000 6.397003173828 160 160 160
22.421875000000 8.718750000000 6.435997009277 150 150 150
22.437500000000 8.718750000000 6.477996826172 151 151 151
22.421875000000 8.718750000000 6.515998840332 144 144 144
22.437500000000 8.718750000000 6.557998657227 146 146 146
22.421875000000 8.726562500000 6.597000122070 138 138 138
22.421875000000 8.718750000000 6.635002136230 17 17 17
22.437500000000 9.000000000000 3.917999267578 198 198 198
22.437500000000 9.000000000000 3.958000183105 167 167 167
22.437500000000 9.007812500000 3.998001098633 161 161 161
22.437500000000 9.007812500000 4.038002014160 161 161 161
22.437500000000 9.007812500000 4.078002929688 162 162 162
22.437500000000 9.007812500000 4.117996215820 163 163 163
22.421875000000 9.000000000000 4.161003112793 160 160 160
22.406250000000 8.992187500000 4.202003479004 120 120 120
22.484375000000 9.031250000000 4.349998474121 123 123 123
22.484375000000 9.039062500000 4.388000488281 162 162 162
22.484375000000 9.039062500000 4.428001403809 164 164 164
22.484375000000 9.039062500000 4.468002319336 167 167 167
22.484375000000 9.039062500000 4.506996154785 169 169 169
22.484375000000 9.046875000000 4.545997619629 165 165 165
22.484375000000 9.046875000000 4.585998535156 166 166 166
22.484375000000 9.046875000000 4.625000000000 166 166 166
22.484375000000 9.046875000000 4.665000915527 164 164 164
22.484375000000 9.046875000000 4.705001831055 129 129 129
22.593750000000 9.117187500000 5.288002014160 53 53 53
22.593750000000 9.117187500000 5.328002929688 81 81 81
22.609375000000 9.117187500000 5.367996215820 81 81 81
22.609375000000 9.117187500000 5.406997680664 57 57 57
22.500000000000 9.070312500000 5.956001281738 172 172 172
22.500000000000 9.070312500000 5.995002746582 191 191 191
22.500000000000 9.070312500000 6.034996032715 190 190 190
22.500000000000 9.070312500000 6.073997497559 185 185 185
22.500000000000 9.078125000000 6.113998413086 197 197 197
22.500000000000 9.078125000000 6.152999877930 175 175 175
22.515625000000 9.085937500000 6.194999694824 21 21 21
22.515625000000 9.093750000000 6.355003356934 127 127 127
22.515625000000 9.101562500000 6.395996093750 171 171 171
22.515625000000 9.093750000000 6.434997558594 171 171 171
22.515625000000 9.093750000000 6.474998474121 182 182 182
22.515625000000 9.101562500000 6.516998291016 173 173 173
22.515625000000 9.093750000000 6.555999755859 187 187 187
22.515625000000 9.093750000000 6.596000671387 131 131 131
22.546875000000 8.210937500000 6.669998168945 158 158 158
22.562500000000 8.203125000000 6.630996704102 182 182 182
22.546875000000 8.210937500000 6.588996887207 180 180 180
22.546875000000 8.210937500000 6.546997070313 184 184 184
22.562500000000 8.203125000000 6.506996154785 178 178 178
22.546875000000 8.210937500000 6.463996887207 153 153 153
22.562500000000 8.195312500000 6.061996459961 164 164 164
22.562500000000 8.195312500000 6.020996093750 190 190 190
22.562500000000 8.195312500000 5.981002807617 187 187 187
22.562500000000 8.195312500000 5.941001892090 181 181 181
22.562500000000 8.195312500000 5.900001525879 184 184 184
22.562500000000 8.195312500000 5.860000610352 125 125 125
22.531250000000 8.523437500000 6.524002075195 35 35 35
22.531250000000 8.531250000000 6.483001708984 171 171 171
22.531250000000 8.523437500000 6.443000793457 185 185 185
22.531250000000 8.523437500000 6.402000427246 183 183 183
22.531250000000 8.523437500000 6.361999511719 183 183 183
22.531250000000 8.523437500000 6.319999694824 181 181 181
22.546875000000 8.523437500000 6.280998229980 158 158 158
22.546875000000 8.523437500000 6.240997314453 174 174 174
22.546875000000 8.523437500000 6.200996398926 190 190 190
22.546875000000 8.515625000000 6.161003112793 183 183 183
22.546875000000 8.523437500000 6.120002746582 185 185 185
22.531250000000 8.523437500000 6.079002380371 184 184 184
22.531250000000 8.523437500000 6.039001464844 156 156 156
22.515625000000 8.859375000000 6.455001831055 119 119 119
22.531250000000 8.859375000000 6.416000366211 181 181 181
22.531250000000 8.851562500000 6.375999450684 182 182 182
22.531250000000 8.851562500000 6.335998535156 174 174 174
22.515625000000 8.859375000000 6.293998718262 168 168 168
22.515625000000 8.859375000000 6.252998352051 173 173 173
22.515625000000 8.859375000000 6.212997436523 175 175 175
22.515625000000 8.859375000000 6.172996520996 177 177 177
22.515625000000 8.851562500000 6.134002685547 178 178 178
22.515625000000 8.859375000000 6.092002868652 167 167 167
22.671875000000 8.757812500000 5.539001464844 110 110 110
22.671875000000 8.765625000000 5.499000549316 134 134 134
22.640625000000 8.781250000000 5.458000183105 139 139 139
22.656250000000 8.773437500000 5.416999816895 107 107 107
22.593750000000 8.796875000000 5.375999450684 124 124 124
22.546875000000 8.828125000000 5.335998535156 185 185 185
22.546875000000 8.843750000000 5.296997070313 126 126 126
22.515625000000 8.843750000000 5.256996154785 139 139 139
22.546875000000 8.828125000000 5.217002868652 140 140 140
22.531250000000 8.835937500000 5.177001953125 178 178 178
22.640625000000 8.773437500000 5.133003234863 114 114 114
22.593750000000 8.796875000000 5.094001770020 147 147 147
22.625000000000 8.781250000000 5.052001953125 98 98 98
22.640625000000 8.773437500000 5.011001586914 105 105 105
22.640625000000 8.781250000000 4.971000671387 102 102 102
22.625000000000 8.781250000000 4.930999755859 111 111 111
22.609375000000 8.789062500000 4.890998840332 117 117 117
22.546875000000 8.820312500000 4.855003356934 143 143 143
22.578125000000 8.804687500000 4.811996459961 140 140 140
22.578125000000 8.804687500000 4.772003173828 156 156 156
22.593750000000 8.796875000000 4.731002807617 156 156 156
22.593750000000 8.796875000000 4.690002441406 156 156 156
22.578125000000 8.804687500000 4.650001525879 154 154 154
22.578125000000 8.796875000000 4.609001159668 156 156 156
22.578125000000 8.796875000000 4.568000793457 160 160 160
22.578125000000 8.804687500000 4.527999877930 156 156 156
22.593750000000 8.796875000000 4.486000061035 154 154 154
22.578125000000 8.796875000000 4.445999145508 161 161 161
22.578125000000 8.796875000000 4.404998779297 160 160 160
22.578125000000 8.804687500000 4.364997863770 159 159 159
22.578125000000 8.804687500000 4.323997497559 155 155 155
22.562500000000 8.812500000000 4.283996582031 154 154 154
22.578125000000 8.804687500000 4.241996765137 152 152 152
22.515625000000 8.835937500000 4.209999084473 114 114 114
22.546875000000 8.820312500000 4.164001464844 136 136 136
22.531250000000 8.828125000000 4.125000000000 131 131 131
22.531250000000 8.828125000000 4.083999633789 140 140 140
22.531250000000 8.828125000000 4.041999816895 135 135 135
22.546875000000 8.820312500000 4.000000000000 134 134 134
22.531250000000 8.828125000000 3.958000183105 132 132 132
22.531250000000 8.835937500000 3.919998168945 130 130 130
22.515625000000 9.187500000000 6.634002685547 171 171 171
22.515625000000 9.187500000000 6.594001770020 184 184 184
22.515625000000 9.187500000000 6.554000854492 173 173 173
22.515625000000 9.187500000000 6.512001037598 185 185 185
22.515625000000 9.187500000000 6.472000122070 175 175 175
22.484375000000 9.187500000000 6.429000854492 177 177 177
22.531250000000 9.164062500000 6.394996643066 45 45 45
22.484375000000 9.187500000000 6.108001708984 158 158 158
22.484375000000 9.187500000000 6.067001342773 185 185 185
22.484375000000 9.187500000000 6.027000427246 187 187 187
22.484375000000 9.187500000000 5.986999511719 180 180 180
22.484375000000 9.187500000000 5.947998046875 190 190 190
22.484375000000 9.187500000000 5.907997131348 175 175 175
22.468750000000 9.203125000000 5.865997314453 31 31 31
22.593750000000 9.125000000000 5.472999572754 16 16 16
22.609375000000 9.117187500000 5.432998657227 83 83 83
22.609375000000 9.109375000000 5.392997741699 83 83 83
22.640625000000 9.093750000000 5.351997375488 98 98 98
22.609375000000 9.117187500000 5.311996459961 70 70 70
22.609375000000 9.109375000000 5.272003173828 34 34 34
22.546875000000 8.218750000000 5.852996826172 177 177 177
22.546875000000 8.218750000000 5.888000488281 224 224 224
22.546875000000 8.218750000000 5.922996520996 234 234 234
22.546875000000 8.218750000000 5.957000732422 224 224 224
22.562500000000 8.210937500000 5.992996215820 233 233 233
22.562500000000 8.210937500000 6.027999877930 233 233 233
22.546875000000 8.218750000000 6.061996459961 219 219 219
22.578125000000 8.210937500000 6.101997375488 35 35 35
22.546875000000 8.218750000000 6.416999816895 169 169 169
22.546875000000 8.218750000000 6.452003479004 220 220 220
22.546875000000 8.218750000000 6.487998962402 228 228 228
22.546875000000 8.226562500000 6.526000976563 221 221 221
22.546875000000 8.226562500000 6.560997009277 226 226 226
22.546875000000 8.226562500000 6.597999572754 226 226 226
22.546875000000 8.226562500000 6.634002685547 211 211 211
22.687500000000 8.507812500000 4.367996215820 95 95 95
22.687500000000 8.515625000000 4.686996459961 138 138 138
22.671875000000 8.515625000000 4.722999572754 62 62 62
22.671875000000 8.515625000000 5.039001464844 78 78 78
22.671875000000 8.515625000000 5.073997497559 114 114 114
22.671875000000 8.515625000000 5.109001159668 125 125 125
22.687500000000 8.523437500000 5.143997192383 130 130 130
22.687500000000 8.523437500000 5.179000854492 129 129 129
22.671875000000 8.523437500000 5.213996887207 126 126 126
22.671875000000 8.523437500000 5.249000549316 172 172 172
22.656250000000 8.523437500000 5.283996582031 157 157 157
22.656250000000 8.515625000000 5.319000244141 128 128 128
22.625000000000 8.523437500000 5.352996826172 103 103 103
22.640625000000 8.523437500000 5.388000488281 132 132 132
22.671875000000 8.523437500000 5.425003051758 151 151 151
22.687500000000 8.531250000000 5.460998535156 135 135 135
22.703125000000 8.523437500000 5.497001647949 127 127 127
22.687500000000 8.531250000000 5.530998229980 120 120 120
22.562500000000 8.539062500000 6.010002136230 27 27 27
22.531250000000 8.531250000000 6.041000366211 220 220 220
22.531250000000 8.531250000000 6.077003479004 228 228 228
22.546875000000 8.539062500000 6.112998962402 232 232 232
22.531250000000 8.531250000000 6.145996093750 223 223 223
22.546875000000 8.539062500000 6.182998657227 231 231 231
22.531250000000 8.539062500000 6.217002868652 221 221 221
22.531250000000 8.539062500000 6.250999450684 213 213 213
22.531250000000 8.539062500000 6.288002014160 234 234 234
22.531250000000 8.539062500000 6.321998596191 228 228 228
22.515625000000 8.546875000000 6.356002807617 221 221 221
22.531250000000 8.539062500000 6.395996093750 234 234 234
22.531250000000 8.539062500000 6.429000854492 218 218 218
22.531250000000 8.539062500000 6.466003417969 196 196 196
22.359375000000 8.812500000000 3.301002502441 166 166 166
22.406250000000 8.812500000000 3.321998596191 156 156 156
22.484375000000 8.812500000000 3.335998535156 160 160 160
22.484375000000 8.812500000000 3.374000549316 165 165 165
22.484375000000 8.812500000000 3.408996582031 184 184 184
22.500000000000 8.804687500000 3.444000244141 188 188 188
22.484375000000 8.812500000000 3.484001159668 180 180 180
22.484375000000 8.812500000000 3.519996643066 187 187 187
22.468750000000 8.812500000000 3.560997009277 133 133 133
22.515625000000 8.812500000000 3.583000183105 225 225 225
22.546875000000 8.812500000000 3.611000061035 248 248 248
22.546875000000 8.812500000000 3.649002075195 249 249 249
22.609375000000 8.812500000000 3.670997619629 21 21 21
22.625000000000 8.812500000000 3.704002380371 20 20 20
22.468750000000 8.812500000000 3.777000427246 128 128 128
22.671875000000 8.820312500000 3.769996643066 21 21 21
22.453125000000 8.812500000000 3.850997924805 113 113 113
22.468750000000 8.812500000000 3.885002136230 107 107 107
22.500000000000 8.812500000000 3.913002014160 147 147 147
22.500000000000 8.820312500000 3.945999145508 158 158 158
22.515625000000 8.820312500000 3.981002807617 157 157 157
22.531250000000 8.820312500000 4.013999938965 153 153 153
22.531250000000 8.820312500000 4.050003051758 156 156 156
22.531250000000 8.828125000000 4.083999633789 159 159 159
22.531250000000 8.828125000000 4.117996215820 157 157 157
22.531250000000 8.828125000000 4.154998779297 151 151 151
22.546875000000 8.820312500000 4.188003540039 156 156 156
22.531250000000 8.828125000000 4.223999023438 137 137 137
22.562500000000 8.828125000000 4.255996704102 165 165 165
22.562500000000 8.828125000000 4.290000915527 166 166 166
22.562500000000 8.828125000000 4.325996398926 173 173 173
22.562500000000 8.828125000000 4.361000061035 175 175 175
22.562500000000 8.828125000000 4.395996093750 176 176 176
22.546875000000 8.828125000000 4.431999206543 177 177 177
22.562500000000 8.828125000000 4.466003417969 170 170 170
22.562500000000 8.828125000000 4.500000000000 171 171 171
22.562500000000 8.828125000000 4.536003112793 171 171 171
22.578125000000 8.835937500000 4.569999694824 173 173 173
22.578125000000 8.835937500000 4.605003356934 169 169 169
22.578125000000 8.828125000000 4.638999938965 170 170 170
22.578125000000 8.835937500000 4.674003601074 173 173 173
22.546875000000 8.828125000000 4.710998535156 148 148 148
22.578125000000 8.835937500000 4.742996215820 174 174 174
22.578125000000 8.835937500000 4.777999877930 176 176 176
22.578125000000 8.835937500000 4.813003540039 172 172 172
22.531250000000 8.835937500000 4.848999023438 156 156 156
22.625000000000 8.835937500000 4.879997253418 120 120 120
22.609375000000 8.835937500000 4.915000915527 105 105 105
22.625000000000 8.843750000000 4.948997497559 122 122 122
22.625000000000 8.843750000000 4.984001159668 113 113 113
22.640625000000 8.835937500000 5.018997192383 117 117 117
22.625000000000 8.843750000000 5.054000854492 115 115 115
22.625000000000 8.843750000000 5.088996887207 139 139 139
22.609375000000 8.835937500000 5.124000549316 162 162 162
22.500000000000 8.835937500000 5.157997131348 188 188 188
22.515625000000 8.843750000000 5.192001342773 168 168 168
22.562500000000 8.843750000000 5.226997375488 174 174 174
22.578125000000 8.843750000000 5.262001037598 184 184 184
22.578125000000 8.843750000000 5.295997619629 175 175 175
22.515625000000 8.843750000000 5.329002380371 189 189 189
22.546875000000 8.851562500000 5.363998413086 177 177 177
22.625000000000 8.851562500000 5.402000427246 140 140 140
22.640625000000 8.843750000000 5.438003540039 127 127 127
22.640625000000 8.843750000000 5.472999572754 128 128 128
22.640625000000 8.843750000000 5.506996154785 124 124 124
22.640625000000 8.843750000000 5.541999816895 124 124 124
22.500000000000 8.859375000000 6.051002502441 175 175 175
22.515625000000 8.859375000000 6.086997985840 223 223 223
22.515625000000 8.859375000000 6.123001098633 229 229 229
22.515625000000 8.859375000000 6.156997680664 223 223 223
22.515625000000 8.859375000000 6.192001342773 221 221 221
22.515625000000 8.859375000000 6.227996826172 222 222 222
22.515625000000 8.859375000000 6.263000488281 208 208 208
22.531250000000 8.859375000000 6.301002502441 219 219 219
22.515625000000 8.859375000000 6.335998535156 217 217 217
22.515625000000 8.859375000000 6.371002197266 221 221 221
22.515625000000 8.859375000000 6.406997680664 214 214 214
22.515625000000 8.867187500000 6.443000793457 197 197 197
22.515625000000 9.171875000000 5.858001708984 64 64 64
22.484375000000 9.171875000000 5.888999938965 226 226 226
22.484375000000 9.179687500000 5.925003051758 242 242 242
22.484375000000 9.171875000000 5.958999633789 238 238 238
22.484375000000 9.171875000000 5.992996215820 232 232 232
22.484375000000 9.179687500000 6.027999877930 238 238 238
22.484375000000 9.179687500000 6.063003540039 228 228 228
22.484375000000 9.171875000000 6.097000122070 195 195 195
22.515625000000 9.187500000000 6.384002685547 109 109 109
22.515625000000 9.187500000000 6.416999816895 217 217 217
22.515625000000 9.187500000000 6.453002929688 214 214 214
22.515625000000 9.187500000000 6.490997314453 211 211 211
22.515625000000 9.187500000000 6.525001525879 215 215 215
22.515625000000 9.187500000000 6.561996459961 203 203 203
22.515625000000 9.187500000000 6.597999572754 215 215 215
22.515625000000 9.187500000000 6.635002136230 176 176 176
22.500000000000 9.070312500000 6.567001342773 16 16 16
22.515625000000 9.062500000000 6.527999877930 186 186 186
22.515625000000 9.062500000000 6.487998962402 177 177 177
22.500000000000 9.062500000000 6.444999694824 184 184 184
22.500000000000 9.062500000000 6.405998229980 183 183 183
22.500000000000 9.062500000000 6.364997863770 174 174 174
22.500000000000 9.062500000000 6.323997497559 164 164 164
22.484375000000 9.070312500000 6.121002197266 164 164 164
22.500000000000 9.054687500000 6.082000732422 188 188 188
22.484375000000 9.062500000000 6.041000366211 188 188 188
22.500000000000 9.054687500000 6.001998901367 183 183 183
22.484375000000 9.070312500000 5.960998535156 190 190 190
22.484375000000 9.062500000000 5.921997070313 175 175 175
22.609375000000 8.968750000000 5.488998413086 112 112 112
22.609375000000 8.976562500000 5.447998046875 118 118 118
22.609375000000 8.968750000000 5.407997131348 124 124 124
22.609375000000 8.976562500000 5.366996765137 124 124 124
22.609375000000 8.968750000000 5.327003479004 131 131 131
22.593750000000 8.984375000000 5.287002563477 133 133 133
22.593750000000 8.976562500000 5.246002197266 118 118 118
22.593750000000 8.976562500000 5.206001281738 122 122 122
22.578125000000 8.984375000000 5.166000366211 87 87 87
22.562500000000 9.000000000000 5.126998901367 57 57 57
22.578125000000 8.984375000000 5.085998535156 100 100 100
22.593750000000 8.976562500000 5.044998168945 73 73 73
22.468750000000 9.039062500000 4.653999328613 76 76 76
22.468750000000 9.046875000000 4.615997314453 120 120 120
22.468750000000 9.046875000000 4.574996948242 137 137 137
22.453125000000 9.054687500000 4.537002563477 133 133 133
22.453125000000 9.054687500000 4.497001647949 132 132 132
22.453125000000 9.054687500000 4.458000183105 116 116 116
22.453125000000 9.046875000000 4.416000366211 97 97 97
22.468750000000 9.039062500000 4.375000000000 75 75 75
22.484375000000 8.757812500000 6.583000183105 108 108 108
22.484375000000 8.757812500000 6.542999267578 116 116 116
22.500000000000 8.757812500000 6.502998352051 124 124 124
22.484375000000 8.757812500000 6.460998535156 122 122 122
22.484375000000 8.757812500000 6.418998718262 118 118 118
22.500000000000 8.750000000000 6.380996704102 136 136 136
22.500000000000 8.750000000000 6.341003417969 169 169 169
22.500000000000 8.750000000000 6.300003051758 163 163 163
22.500000000000 8.750000000000 6.260002136230 167 167 167
22.484375000000 8.750000000000 6.218002319336 161 161 161
22.484375000000 8.750000000000 6.179000854492 163 163 163
22.500000000000 8.750000000000 6.139999389648 165 165 165
22.484375000000 8.750000000000 6.097999572754 157 157 157
22.484375000000 8.750000000000 6.057998657227 149 149 149
22.484375000000 8.750000000000 6.018997192383 154 154 154
22.484375000000 8.750000000000 5.977996826172 164 164 164
22.484375000000 8.750000000000 5.938003540039 163 163 163
22.484375000000 8.750000000000 5.898002624512 166 166 166
22.484375000000 8.742187500000 5.859001159668 167 167 167
22.484375000000 8.750000000000 5.819000244141 166 166 166
22.484375000000 8.742187500000 5.779998779297 165 165 165
22.484375000000 8.742187500000 5.739997863770 168 168 168
22.484375000000 8.742187500000 5.700996398926 171 171 171
22.484375000000 8.742187500000 5.661003112793 176 176 176
22.484375000000 8.742187500000 5.621002197266 173 173 173
22.484375000000 8.742187500000 5.582000732422 172 172 172
22.484375000000 8.742187500000 5.541999816895 175 175 175
22.484375000000 8.742187500000 5.502998352051 168 168 168
22.484375000000 8.742187500000 5.462997436523 169 169 169
22.468750000000 8.750000000000 5.422996520996 163 163 163
22.468750000000 8.750000000000 5.384002685547 168 168 168
22.484375000000 8.734375000000 5.345001220703 166 166 166
22.468750000000 8.750000000000 5.305000305176 176 176 176
22.468750000000 8.742187500000 5.265998840332 161 161 161
22.484375000000 8.734375000000 5.225997924805 162 162 162
22.484375000000 8.734375000000 5.186996459961 162 162 162
22.468750000000 8.742187500000 5.147003173828 171 171 171
22.468750000000 8.742187500000 5.108001708984 157 157 157
22.484375000000 8.734375000000 5.068000793457 150 150 150
22.468750000000 8.742187500000 5.028999328613 147 147 147
22.468750000000 8.742187500000 4.988998413086 152 152 152
22.468750000000 8.742187500000 4.949996948242 153 153 153
22.468750000000 8.742187500000 4.909996032715 153 153 153
22.468750000000 8.742187500000 4.871002197266 158 158 158
22.468750000000 8.742187500000 4.831001281738 149 149 149
22.468750000000 8.734375000000 4.791999816895 150 150 150
22.453125000000 8.742187500000 4.751998901367 153 153 153
22.453125000000 8.742187500000 4.712997436523 150 150 150
22.453125000000 8.742187500000 4.674003601074 113 113 113
22.453125000000 8.742187500000 4.634002685547 158 158 158
22.453125000000 8.734375000000 4.594001770020 157 157 157
22.453125000000 8.734375000000 4.554000854492 159 159 159
22.453125000000 8.734375000000 4.514999389648 157 157 157
22.453125000000 8.734375000000 4.474998474121 161 161 161
22.468750000000 8.734375000000 4.432998657227 161 161 161
22.453125000000 8.734375000000 4.393997192383 157 157 157
22.453125000000 8.734375000000 4.355003356934 161 161 161
22.453125000000 8.734375000000 4.313003540039 158 158 158
22.453125000000 8.734375000000 4.274002075195 157 157 157
22.453125000000 8.734375000000 4.233001708984 157 157 157
22.437500000000 8.734375000000 4.195999145508 153 153 153
22.437500000000 8.734375000000 4.154998779297 136 136 136
22.437500000000 8.734375000000 4.114997863770 138 138 138
22.437500000000 8.734375000000 4.073997497559 144 144 144
22.437500000000 8.734375000000 4.032997131348 147 147 147
22.421875000000 8.742187500000 3.996002197266 137 137 137
22.437500000000 8.734375000000 3.952003479004 136 136 136
22.421875000000 8.742187500000 3.915000915527 136 136 136
22.421875000000 8.742187500000 3.873001098633 135 135 135
22.421875000000 8.742187500000 3.832000732422 134 134 134
22.421875000000 8.742187500000 3.790000915527 132 132 132
22.421875000000 8.742187500000 3.750999450684 128 128 128
22.406250000000 8.742187500000 3.710998535156 133 133 133
22.406250000000 8.742187500000 3.670997619629 133 133 133
22.406250000000 8.742187500000 3.627998352051 127 127 127
22.406250000000 8.742187500000 3.585998535156 130 130 130
22.406250000000 8.742187500000 3.544998168945 122 122 122
22.406250000000 8.742187500000 3.504997253418 129 129 129
22.406250000000 8.742187500000 3.461997985840 127 127 127
22.406250000000 8.742187500000 3.421997070313 126 126 126
22.406250000000 8.742187500000 3.379997253418 125 125 125
22.406250000000 8.742187500000 3.336997985840 124 124 124
22.531250000000 8.437500000000 6.486000061035 167 167 167
22.531250000000 8.429687500000 6.445999145508 187 187 187
22.531250000000 8.437500000000 6.404998779297 186 186 186
22.531250000000 8.429687500000 6.363998413086 184 184 184
22.531250000000 8.429687500000 6.324996948242 187 187 187
22.531250000000 8.429687500000 6.283996582031 175 175 175
22.546875000000 8.421875000000 6.164001464844 174 174 174
22.546875000000 8.421875000000 6.124000549316 192 192 192
22.546875000000 8.421875000000 6.083000183105 185 185 185
22.546875000000 8.421875000000 6.042999267578 184 184 184
22.546875000000 8.421875000000 6.002998352051 191 191 191
22.546875000000 8.421875000000 5.962997436523 167 167 167
22.546875000000 8.117187500000 6.554000854492 124 124 124
22.546875000000 8.117187500000 6.513999938965 170 170 170
22.546875000000 8.109375000000 6.473999023438 179 179 179
22.546875000000 8.101562500000 5.987998962402 139 139 139
22.562500000000 8.101562500000 5.947998046875 156 156 156
22.562500000000 8.101562500000 5.907997131348 94 94 94
22.500000000000 9.257812500000 5.836997985840 23 23 23
22.531250000000 9.273437500000 5.876998901367 151 151 151
22.515625000000 9.265625000000 5.916000366211 200 200 200
22.500000000000 9.265625000000 5.955001831055 211 211 211
22.531250000000 9.273437500000 5.996002197266 170 170 170
22.546875000000 9.281250000000 6.436996459961 106 106 106
22.546875000000 9.273437500000 6.474998474121 175 175 175
22.546875000000 9.281250000000 6.516998291016 173 173 173
22.531250000000 9.273437500000 6.554000854492 151 151 151
22.484375000000 8.937500000000 3.856002807617 132 132 132
22.484375000000 8.937500000000 3.895996093750 164 164 164
22.484375000000 8.937500000000 3.936996459961 161 161 161
22.484375000000 8.937500000000 3.976997375488 162 162 162
22.484375000000 8.937500000000 4.017997741699 163 163 163
22.484375000000 8.929687500000 4.059997558594 165 165 165
22.484375000000 8.937500000000 4.097999572754 165 165 165
22.484375000000 8.929687500000 4.140998840332 160 160 160
22.531250000000 8.945312500000 4.253997802734 139 139 139
22.531250000000 8.953125000000 4.291999816895 163 163 163
22.546875000000 8.960937500000 4.331001281738 171 171 171
22.531250000000 8.960937500000 4.372001647949 176 176 176
22.531250000000 8.953125000000 4.412002563477 176 176 176
22.546875000000 8.960937500000 4.450996398926 170 170 170
22.546875000000 8.960937500000 4.490997314453 172 172 172
22.546875000000 8.960937500000 4.529998779297 174 174 174
22.546875000000 8.960937500000 4.569999694824 173 173 173
22.546875000000 8.968750000000 4.608001708984 174 174 174
22.546875000000 8.968750000000 4.648002624512 171 171 171
22.546875000000 8.960937500000 4.688003540039 169 169 169
22.546875000000 8.968750000000 4.726997375488 155 155 155
22.625000000000 9.007812500000 5.156997680664 80 80 80
22.640625000000 9.023437500000 5.196998596191 129 129 129
22.656250000000 9.023437500000 5.236000061035 122 122 122
22.640625000000 9.015625000000 5.276000976563 131 131 131
22.656250000000 9.031250000000 5.316001892090 133 133 133
22.656250000000 9.023437500000 5.356002807617 127 127 127
22.656250000000 9.023437500000 5.395996093750 128 128 128
22.656250000000 9.031250000000 5.435997009277 127 127 127
22.640625000000 9.023437500000 5.474998474121 57 57 57
22.531250000000 8.960937500000 5.944999694824 91 91 91
22.531250000000 8.953125000000 5.983001708984 181 181 181
22.531250000000 8.960937500000 6.024002075195 193 193 193
22.531250000000 8.960937500000 6.063003540039 182 182 182
22.546875000000 8.968750000000 6.102996826172 194 194 194
22.531250000000 8.960937500000 6.141998291016 183 183 183
22.531250000000 8.960937500000 6.181999206543 157 157 157
22.546875000000 8.976562500000 6.263999938965 128 128 128
22.546875000000 8.968750000000 6.303001403809 171 171 171
22.546875000000 8.968750000000 6.343002319336 169 169 169
22.546875000000 8.976562500000 6.384002685547 177 177 177
22.546875000000 8.976562500000 6.424003601074 174 174 174
22.546875000000 8.976562500000 6.463996887207 177 177 177
22.546875000000 8.976562500000 6.505996704102 117 117 117
22.609375000000 8.671875000000 3.851997375488 66 66 66
22.609375000000 8.679687500000 3.891998291016 158 158 158
22.625000000000 8.695312500000 3.928001403809 159 159 159
22.640625000000 8.695312500000 3.968002319336 161 161 161
22.640625000000 8.695312500000 4.011001586914 160 160 160
22.640625000000 8.695312500000 4.051002502441 162 162 162
22.640625000000 8.703125000000 4.092002868652 161 161 161
22.640625000000 8.695312500000 4.134002685547 160 160 160
22.625000000000 8.679687500000 4.178001403809 148 148 148
22.640625000000 8.703125000000 4.213996887207 161 161 161
22.640625000000 8.703125000000 4.253997802734 173 173 173
22.640625000000 8.703125000000 4.294998168945 184 184 184
22.640625000000 8.710937500000 4.334999084473 186 186 186
22.640625000000 8.703125000000 4.375999450684 186 186 186
22.656250000000 8.703125000000 4.416000366211 179 179 179
22.640625000000 8.710937500000 4.457000732422 176 176 176
22.640625000000 8.703125000000 4.498001098633 175 175 175
22.656250000000 8.703125000000 4.537002563477 174 174 174
22.640625000000 8.703125000000 4.578002929688 173 173 173
22.640625000000 8.710937500000 4.617996215820 173 173 173
22.656250000000 8.703125000000 4.656997680664 175 175 175
22.656250000000 8.703125000000 4.697998046875 172 172 172
22.640625000000 8.710937500000 4.737998962402 176 176 176
22.640625000000 8.703125000000 4.778999328613 173 173 173
22.625000000000 8.695312500000 4.820999145508 146 146 146
22.656250000000 8.710937500000 4.858001708984 93 93 93
22.656250000000 8.710937500000 4.898002624512 110 110 110
22.625000000000 8.687500000000 4.941001892090 129 129 129
22.593750000000 8.671875000000 4.983001708984 168 168 168
22.578125000000 8.664062500000 5.023002624512 180 180 180
22.593750000000 8.671875000000 5.061996459961 179 179 179
22.593750000000 8.671875000000 5.100997924805 180 180 180
22.531250000000 8.640625000000 5.142997741699 156 156 156
22.546875000000 8.648437500000 5.181999206543 150 150 150
22.593750000000 8.671875000000 5.220001220703 133 133 133
22.546875000000 8.648437500000 5.260002136230 153 153 153
22.531250000000 8.640625000000 5.299003601074 166 166 166
