16.218750000000 6.851562500000 9.851997375488 120 120 120
16.250000000000 6.851562500000 9.861000061035 146 146 146
13.625000000000 6.828125000000 9.232002258301 139 139 139
13.671875000000 6.828125000000 9.223999023438 138 138 138
16.265625000000 6.648437500000 8.550003051758 175 175 175
16.265625000000 6.656250000000 8.550003051758 164 164 164
16.281250000000 6.664062500000 9.864997863770 96 96 96
16.359375000000 6.695312500000 9.790000915527 67 67 67
16.375000000000 6.710937500000 9.788002014160 155 155 155
16.390625000000 6.726562500000 9.777999877930 170 170 170
16.406250000000 6.734375000000 9.865997314453 108 108 108
16.421875000000 6.750000000000 8.850997924805 117 117 117
16.437500000000 6.757812500000 8.839996337891 67 67 67
16.484375000000 6.781250000000 9.860000610352 118 118 118
16.500000000000 6.789062500000 9.850997924805 120 120 120
15.937500000000 6.765625000000 8.845001220703 137 137 137
15.984375000000 6.781250000000 8.823997497559 161 161 161
16.000000000000 6.789062500000 8.782997131348 147 147 147
16.015625000000 6.804687500000 8.821998596191 150 150 150
15.906250000000 6.750000000000 9.884002685547 142 142 142
15.937500000000 6.757812500000 9.792999267578 135 135 135
15.984375000000 6.789062500000 9.582000732422 134 134 134
16.000000000000 6.796875000000 9.586997985840 156 156 156
16.015625000000 6.812500000000 9.593002319336 151 151 151
16.046875000000 6.820312500000 9.615997314453 93 93 93
15.453125000000 6.796875000000 8.768997192383 168 168 168
15.468750000000 6.812500000000 8.756996154785 171 171 171
15.484375000000 6.812500000000 8.802001953125 178 178 178
15.484375000000 6.820312500000 8.828002929688 182 182 182
15.500000000000 6.835937500000 8.845001220703 114 114 114
15.453125000000 6.804687500000 9.307998657227 102 102 102
15.468750000000 6.812500000000 9.313003540039 155 155 155
15.484375000000 6.820312500000 9.313003540039 166 166 166
15.500000000000 6.835937500000 9.339996337891 151 151 151
15.500000000000 6.835937500000 9.445999145508 152 152 152
15.421875000000 6.789062500000 9.861000061035 111 111 111
14.937500000000 6.804687500000 8.837997436523 92 92 92
14.953125000000 6.820312500000 8.842002868652 144 144 144
14.968750000000 6.835937500000 8.847000122070 148 148 148
15.000000000000 6.843750000000 8.844001770020 115 115 115
14.953125000000 6.820312500000 9.000999450684 113 113 113
14.968750000000 6.828125000000 9.042999267578 161 161 161
14.984375000000 6.835937500000 9.043998718262 177 177 177
15.000000000000 6.851562500000 9.058998107910 158 158 158
15.015625000000 6.851562500000 9.075996398926 85 85 85
14.875000000000 6.781250000000 9.929000854492 46 46 46
14.906250000000 6.804687500000 9.921997070313 131 131 131
14.937500000000 6.820312500000 9.909996032715 131 131 131
14.968750000000 6.835937500000 9.921997070313 53 53 53
14.421875000000 6.812500000000 8.777000427246 61 61 61
14.453125000000 6.835937500000 8.778999328613 142 142 142
14.468750000000 6.851562500000 8.766998291016 179 179 179
14.484375000000 6.859375000000 8.784996032715 182 182 182
14.484375000000 6.867187500000 8.814002990723 122 122 122
14.421875000000 6.828125000000 9.963996887207 105 105 105
14.437500000000 6.835937500000 9.972999572754 114 114 114
14.453125000000 6.859375000000 9.972999572754 68 68 68
14.078125000000 6.921875000000 8.345001220703 9 9 9
14.062500000000 6.914062500000 8.389999389648 14 14 14
14.093750000000 6.937500000000 8.388999938965 18 18 18
14.109375000000 6.945312500000 8.397003173828 20 20 20
14.109375000000 6.945312500000 8.432998657227 10 10 10
13.875000000000 6.812500000000 9.176002502441 125 125 125
13.875000000000 6.812500000000 9.225997924805 169 169 169
13.890625000000 6.828125000000 9.235000610352 159 159 159
13.937500000000 6.843750000000 9.236999511719 167 167 167
13.953125000000 6.867187500000 9.232002258301 174 174 174
13.984375000000 6.882812500000 9.239997863770 165 165 165
14.031250000000 6.906250000000 9.216003417969 152 152 152
14.046875000000 6.921875000000 9.235000610352 150 150 150
14.062500000000 6.921875000000 9.269996643066 138 138 138
14.062500000000 6.921875000000 9.315002441406 152 152 152
14.062500000000 6.929687500000 9.347999572754 145 145 145
14.078125000000 6.929687500000 9.391998291016 152 152 152
14.062500000000 6.929687500000 9.449996948242 156 156 156
14.062500000000 6.929687500000 9.505996704102 146 146 146
14.078125000000 6.937500000000 9.538002014160 117 117 117
13.843750000000 6.804687500000 10.005996704102 81 81 81
13.875000000000 6.820312500000 9.997001647949 173 173 173
13.937500000000 6.851562500000 9.977996826172 176 176 176
13.953125000000 6.867187500000 9.991996765137 182 182 182
13.968750000000 6.882812500000 10.000000000000 169 169 169
14.015625000000 6.890625000000 10.016998291016 73 73 73
13.343750000000 6.796875000000 7.278999328613 96 96 96
13.343750000000 6.789062500000 7.306999206543 102 102 102
13.343750000000 6.796875000000 7.331001281738 99 99 99
13.343750000000 6.796875000000 7.356002807617 101 101 101
13.343750000000 6.796875000000 7.384002685547 96 96 96
13.343750000000 6.804687500000 7.408996582031 98 98 98
13.328125000000 6.789062500000 7.448997497559 104 104 104
13.343750000000 6.796875000000 7.471000671387 106 106 106
13.343750000000 6.796875000000 7.497001647949 98 98 98
13.343750000000 6.796875000000 7.528999328613 108 108 108
13.343750000000 6.796875000000 7.554000854492 100 100 100
13.328125000000 6.789062500000 7.592002868652 105 105 105
13.343750000000 6.796875000000 7.609001159668 104 104 104
13.343750000000 6.796875000000 7.640998840332 104 104 104
13.343750000000 6.796875000000 7.668998718262 111 111 111
13.343750000000 6.796875000000 7.703002929688 107 107 107
13.328125000000 6.789062500000 7.736000061035 112 112 112
13.328125000000 6.796875000000 7.764999389648 114 114 114
13.343750000000 6.804687500000 7.787002563477 107 107 107
13.343750000000 6.804687500000 7.817001342773 112 112 112
13.328125000000 6.796875000000 7.856002807617 113 113 113
13.343750000000 6.796875000000 7.885002136230 107 107 107
13.343750000000 6.796875000000 7.913002014160 106 106 106
13.328125000000 6.796875000000 7.948997497559 105 105 105
13.328125000000 6.789062500000 7.986999511719 113 113 113
13.328125000000 6.796875000000 8.013000488281 100 100 100
13.343750000000 6.796875000000 8.043998718262 105 105 105
13.343750000000 6.804687500000 8.071998596191 101 101 101
13.328125000000 6.796875000000 8.111999511719 103 103 103
13.328125000000 6.796875000000 8.145996093750 123 123 123
13.343750000000 6.804687500000 8.169998168945 160 160 160
13.343750000000 6.812500000000 8.194000244141 155 155 155
13.375000000000 6.812500000000 8.206001281738 146 146 146
13.421875000000 6.835937500000 8.208000183105 145 145 145
13.453125000000 6.859375000000 8.205001831055 154 154 154
13.468750000000 6.867187500000 8.222000122070 166 166 166
13.484375000000 6.882812500000 8.236999511719 166 166 166
13.484375000000 6.882812500000 8.273002624512 169 169 169
13.484375000000 6.875000000000 8.310997009277 158 158 158
13.453125000000 6.867187500000 8.371002197266 134 134 134
13.343750000000 6.804687500000 8.526000976563 109 109 109
13.343750000000 6.804687500000 8.561996459961 107 107 107
13.328125000000 6.796875000000 8.610000610352 114 114 114
13.328125000000 6.804687500000 8.643997192383 103 103 103
13.343750000000 6.804687500000 8.714996337891 103 103 103
13.343750000000 6.812500000000 8.736999511719 83 83 83
13.359375000000 6.812500000000 8.759002685547 66 66 66
13.359375000000 6.804687500000 8.815002441406 58 58 58
13.343750000000 6.812500000000 8.872001647949 88 88 88
13.328125000000 6.804687500000 8.919998168945 76 76 76
13.375000000000 6.820312500000 8.914001464844 61 61 61
13.437500000000 6.859375000000 9.050003051758 13 13 13
13.468750000000 6.875000000000 9.055000305176 12 12 12
13.531250000000 6.906250000000 9.081001281738 9 9 9
13.546875000000 6.921875000000 9.094001770020 17 17 17
13.562500000000 6.937500000000 9.101997375488 20 20 20
13.578125000000 6.968750000000 9.096000671387 15 15 15
13.406250000000 6.851562500000 9.754997253418 12 12 12
13.406250000000 6.851562500000 9.810997009277 48 48 48
13.359375000000 6.820312500000 9.930000305176 88 88 88
13.375000000000 6.835937500000 9.940002441406 101 101 101
13.437500000000 6.859375000000 9.939002990723 144 144 144
13.453125000000 6.882812500000 9.953002929688 169 169 169
13.484375000000 6.898437500000 9.959999084473 162 162 162
13.484375000000 6.898437500000 10.018997192383 159 159 159
13.484375000000 6.898437500000 10.066001892090 118 118 118
13.328125000000 6.812500000000 10.380996704102 65 65 65
13.328125000000 6.804687500000 10.458000183105 65 65 65
13.328125000000 6.804687500000 10.519996643066 66 66 66
13.312500000000 6.812500000000 10.591003417969 68 68 68
13.328125000000 6.812500000000 10.649002075195 64 64 64
13.312500000000 6.812500000000 10.723999023438 62 62 62
13.328125000000 6.812500000000 10.913002014160 46 46 46
13.312500000000 6.820312500000 11.000999450684 42 42 42
13.312500000000 6.812500000000 11.083000183105 42 42 42
13.328125000000 6.812500000000 11.148002624512 41 41 41
13.328125000000 6.812500000000 11.209999084473 33 33 33
13.328125000000 6.812500000000 11.286003112793 23 23 23
13.312500000000 6.820312500000 11.380996704102 19 19 19
13.078125000000 6.953125000000 7.277000427246 146 146 146
13.078125000000 6.953125000000 7.303001403809 144 144 144
13.078125000000 6.953125000000 7.333000183105 143 143 143
13.078125000000 6.953125000000 7.361000061035 146 146 146
13.078125000000 6.953125000000 7.389999389648 142 142 142
13.078125000000 6.953125000000 7.416000366211 140 140 140
13.093750000000 6.960937500000 7.442001342773 141 141 141
13.078125000000 6.953125000000 7.475997924805 138 138 138
13.078125000000 6.953125000000 7.503997802734 143 143 143
13.078125000000 6.953125000000 7.533996582031 138 138 138
13.078125000000 6.953125000000 7.564002990723 139 139 139
13.078125000000 6.953125000000 7.595001220703 139 139 139
13.078125000000 6.953125000000 7.623001098633 135 135 135
13.078125000000 6.953125000000 7.653999328613 137 137 137
13.078125000000 6.953125000000 7.684997558594 135 135 135
13.078125000000 6.953125000000 7.716003417969 130 130 130
13.078125000000 6.960937500000 7.745002746582 134 134 134
13.078125000000 6.953125000000 7.780998229980 131 131 131
13.078125000000 6.960937500000 7.807998657227 123 123 123
13.078125000000 6.960937500000 7.834999084473 127 127 127
13.078125000000 6.953125000000 7.873001098633 132 132 132
13.078125000000 6.953125000000 7.908996582031 123 123 123
13.078125000000 6.960937500000 7.931999206543 124 124 124
13.078125000000 6.960937500000 7.969001770020 121 121 121
13.078125000000 6.960937500000 8.002998352051 124 124 124
13.078125000000 6.960937500000 8.031997680664 116 116 116
13.078125000000 6.953125000000 8.070999145508 118 118 118
13.078125000000 6.960937500000 8.101997375488 109 109 109
13.078125000000 6.968750000000 8.128997802734 109 109 109
13.078125000000 6.960937500000 8.166000366211 106 106 106
13.078125000000 6.960937500000 8.199996948242 101 101 101
13.078125000000 6.960937500000 8.236000061035 101 101 101
13.078125000000 6.960937500000 8.268997192383 98 98 98
13.078125000000 6.968750000000 8.303001403809 91 91 91
13.078125000000 6.960937500000 8.343002319336 89 89 89
13.078125000000 6.960937500000 8.378997802734 89 89 89
13.078125000000 6.960937500000 8.414001464844 84 84 84
13.078125000000 6.968750000000 8.448997497559 72 72 72
13.078125000000 6.968750000000 8.486999511719 68 68 68
13.078125000000 6.960937500000 8.531997680664 56 56 56
13.078125000000 6.960937500000 8.564002990723 47 47 47
13.078125000000 6.968750000000 8.597000122070 46 46 46
13.078125000000 6.968750000000 8.635002136230 42 42 42
13.078125000000 6.968750000000 8.675003051758 30 30 30
12.984375000000 6.921875000000 9.831001281738 110 110 110
13.078125000000 6.976562500000 9.750000000000 145 145 145
13.109375000000 6.992187500000 9.764999389648 135 135 135
12.953125000000 6.906250000000 10.024002075195 151 151 151
12.968750000000 6.914062500000 10.059997558594 148 148 148
13.015625000000 6.945312500000 10.047996520996 138 138 138
13.046875000000 6.960937500000 10.058998107910 79 79 79
13.125000000000 7.000000000000 10.024002075195 119 119 119
13.125000000000 7.007812500000 10.074996948242 127 127 127
13.125000000000 7.015625000000 10.113998413086 104 104 104
12.843750000000 6.851562500000 11.112998962402 139 139 139
12.875000000000 6.875000000000 11.144996643066 151 151 151
12.921875000000 6.898437500000 11.131996154785 152 152 152
12.953125000000 6.914062500000 11.138999938965 153 153 153
13.015625000000 6.945312500000 11.124000549316 140 140 140
13.046875000000 6.968750000000 11.131996154785 60 60 60
13.156250000000 7.031250000000 11.174003601074 76 76 76
12.375000000000 6.882812500000 10.084999084473 77 77 77
12.453125000000 6.937500000000 10.027000427246 89 89 89
12.437500000000 6.921875000000 10.110000610352 167 167 167
12.500000000000 6.960937500000 10.091003417969 131 131 131
12.500000000000 6.953125000000 10.151000976563 134 134 134
12.500000000000 6.953125000000 10.208999633789 139 139 139
12.500000000000 6.953125000000 10.268997192383 139 139 139
12.531250000000 6.976562500000 10.277999877930 89 89 89
12.500000000000 6.953125000000 10.387001037598 142 142 142
12.484375000000 6.953125000000 10.466003417969 141 141 141
12.390625000000 6.906250000000 11.153999328613 109 109 109
12.453125000000 6.937500000000 11.142997741699 159 159 159
12.500000000000 6.960937500000 11.141998291016 136 136 136
12.500000000000 6.968750000000 11.194999694824 131 131 131
12.500000000000 6.968750000000 11.263999938965 152 152 152
12.515625000000 6.968750000000 11.328002929688 145 145 145
12.515625000000 6.976562500000 11.390998840332 126 126 126
12.515625000000 6.984375000000 11.454002380371 116 116 116
13.250000000000 6.742187500000 6.484001159668 170 170 170
13.265625000000 6.734375000000 6.458999633789 176 176 176
13.218750000000 6.734375000000 6.454002380371 173 173 173
13.156250000000 6.742187500000 6.456001281738 169 169 169
13.156250000000 6.742187500000 6.431999206543 108 108 108
13.265625000000 6.742187500000 5.901000976563 175 175 175
13.265625000000 6.742187500000 5.881996154785 181 181 181
13.250000000000 6.742187500000 5.866996765137 177 177 177
13.156250000000 6.742187500000 5.866996765137 158 158 158
13.265625000000 6.742187500000 5.365997314453 170 170 170
13.265625000000 6.742187500000 5.347000122070 187 187 187
13.265625000000 6.742187500000 5.328002929688 185 185 185
13.140625000000 6.742187500000 5.315002441406 53 53 53
13.000000000000 6.757812500000 3.583000183105 79 79 79
12.984375000000 6.750000000000 3.556999206543 169 169 169
12.984375000000 6.750000000000 3.531997680664 174 174 174
12.984375000000 6.750000000000 3.506996154785 177 177 177
12.984375000000 6.750000000000 3.481002807617 168 168 168
12.984375000000 6.750000000000 3.457000732422 178 178 178
12.984375000000 6.750000000000 3.426002502441 165 165 165
12.984375000000 6.750000000000 3.404998779297 171 171 171
13.000000000000 6.757812500000 3.384002685547 203 203 203
13.375000000000 6.750000000000 3.553001403809 148 148 148
13.390625000000 6.750000000000 3.541000366211 159 159 159
13.390625000000 6.750000000000 3.519996643066 156 156 156
13.390625000000 6.750000000000 3.498001098633 155 155 155
13.375000000000 6.757812500000 3.464996337891 157 157 157
13.390625000000 6.750000000000 3.450996398926 157 157 157
13.390625000000 6.750000000000 3.424003601074 159 159 159
13.390625000000 6.750000000000 3.400001525879 173 173 173
13.390625000000 6.750000000000 3.376998901367 213 213 213
13.421875000000 6.757812500000 3.374000549316 156 156 156
13.484375000000 6.750000000000 3.375000000000 154 154 154
13.484375000000 6.750000000000 3.355003356934 175 175 175
13.343750000000 6.750000000000 3.251998901367 178 178 178
12.984375000000 7.062500000000 3.494003295898 108 108 108
12.968750000000 7.062500000000 3.466003417969 132 132 132
12.906250000000 7.070312500000 3.403999328613 218 218 218
12.968750000000 7.062500000000 3.409996032715 155 155 155
12.968750000000 7.062500000000 3.387001037598 170 170 170
13.000000000000 7.070312500000 3.375000000000 164 164 164
13.046875000000 7.070312500000 3.378997802734 143 143 143
13.109375000000 7.062500000000 3.378997802734 148 148 148
13.156250000000 7.062500000000 3.376998901367 151 151 151
13.296875000000 7.070312500000 3.434997558594 159 159 159
13.328125000000 7.062500000000 3.427001953125 152 152 152
13.343750000000 7.070312500000 3.406997680664 156 156 156
13.343750000000 7.070312500000 3.388999938965 156 156 156
13.390625000000 7.070312500000 3.387001037598 156 156 156
13.406250000000 7.062500000000 3.375000000000 165 165 165
13.453125000000 7.062500000000 3.377998352051 148 148 148
13.484375000000 7.070312500000 3.371002197266 158 158 158
13.437500000000 7.070312500000 3.325996398926 189 189 189
13.218750000000 6.656250000000 6.907997131348 214 214 214
13.203125000000 6.656250000000 6.888000488281 3 3 3
13.218750000000 6.656250000000 6.861000061035 2 2 2
13.218750000000 6.656250000000 6.836997985840 2 2 2
13.218750000000 6.656250000000 6.809997558594 2 2 2
13.218750000000 6.656250000000 6.787002563477 2 2 2
13.218750000000 6.656250000000 6.761001586914 2 2 2
13.218750000000 6.656250000000 6.735000610352 223 223 223
13.203125000000 6.664062500000 6.718002319336 151 151 151
13.203125000000 6.664062500000 6.692001342773 119 119 119
13.203125000000 6.664062500000 6.666999816895 114 114 114
13.203125000000 6.664062500000 6.643997192383 111 111 111
13.203125000000 6.664062500000 6.619003295898 112 112 112
13.203125000000 6.664062500000 6.596000671387 111 111 111
13.187500000000 6.671875000000 6.572998046875 104 104 104
13.203125000000 6.664062500000 6.545997619629 106 106 106
13.203125000000 6.656250000000 6.518997192383 103 103 103
13.203125000000 6.664062500000 6.498001098633 103 103 103
13.203125000000 6.664062500000 6.474998474121 99 99 99
13.203125000000 6.656250000000 6.447998046875 99 99 99
13.203125000000 6.664062500000 6.427001953125 99 99 99
13.203125000000 6.664062500000 6.402999877930 101 101 101
13.203125000000 6.664062500000 6.379997253418 104 104 104
13.203125000000 6.664062500000 6.356002807617 97 97 97
13.203125000000 6.664062500000 6.333000183105 99 99 99
13.203125000000 6.656250000000 6.306999206543 212 212 212
13.187500000000 6.671875000000 6.287002563477 1 1 1
13.203125000000 6.656250000000 6.262001037598 1 1 1
13.203125000000 6.664062500000 6.239997863770 1 1 1
13.203125000000 6.664062500000 6.217002868652 1 1 1
13.187500000000 6.671875000000 6.196998596191 161 161 161
13.203125000000 6.664062500000 6.148002624512 150 150 150
13.203125000000 6.664062500000 6.125000000000 190 190 190
13.203125000000 6.664062500000 6.101997375488 189 189 189
13.203125000000 6.664062500000 6.080001831055 184 184 184
13.203125000000 6.664062500000 6.055999755859 184 184 184
13.203125000000 6.664062500000 6.033996582031 191 191 191
13.203125000000 6.656250000000 6.010002136230 160 160 160
13.218750000000 6.656250000000 5.986999511719 135 135 135
13.218750000000 6.656250000000 5.963996887207 106 106 106
13.203125000000 6.664062500000 5.944000244141 125 125 125
13.203125000000 6.656250000000 5.920997619629 148 148 148
13.218750000000 6.656250000000 5.897003173828 166 166 166
13.218750000000 6.656250000000 5.874000549316 156 156 156
13.218750000000 6.656250000000 5.851997375488 119 119 119
13.218750000000 6.656250000000 5.830001831055 86 86 86
13.203125000000 6.664062500000 5.809997558594 128 128 128
13.218750000000 6.656250000000 5.786003112793 179 179 179
13.203125000000 6.664062500000 5.764999389648 185 185 185
13.203125000000 6.664062500000 5.742996215820 213 213 213
13.187500000000 6.671875000000 5.722000122070 219 219 219
13.187500000000 6.671875000000 5.698997497559 220 220 220
13.187500000000 6.679687500000 5.678001403809 217 217 217
13.187500000000 6.671875000000 5.654998779297 213 213 213
13.187500000000 6.679687500000 5.633003234863 136 136 136
13.171875000000 6.679687500000 5.567001342773 153 153 153
13.187500000000 6.671875000000 5.544998168945 186 186 186
13.187500000000 6.679687500000 5.523002624512 195 195 195
13.187500000000 6.679687500000 5.500000000000 197 197 197
13.187500000000 6.671875000000 5.477996826172 197 197 197
13.187500000000 6.679687500000 5.456001281738 201 201 201
13.171875000000 6.679687500000 5.433998107910 190 190 190
13.171875000000 6.679687500000 5.412002563477 180 180 180
13.171875000000 6.679687500000 5.389999389648 170 170 170
13.156250000000 6.687500000000 5.366996765137 127 127 127
13.171875000000 6.679687500000 5.345001220703 86 86 86
13.187500000000 6.671875000000 5.323997497559 71 71 71
13.171875000000 6.679687500000 5.301002502441 67 67 67
13.171875000000 6.679687500000 5.278999328613 211 211 211
13.187500000000 6.679687500000 5.256996154785 215 215 215
13.171875000000 6.679687500000 5.235000610352 216 216 216
13.171875000000 6.679687500000 5.212997436523 214 214 214
13.171875000000 6.679687500000 5.190002441406 216 216 216
13.187500000000 6.671875000000 5.168998718262 213 213 213
13.187500000000 6.671875000000 5.147003173828 192 192 192
13.187500000000 6.671875000000 5.124000549316 138 138 138
13.000000000000 6.789062500000 5.037002563477 148 148 148
13.015625000000 6.773437500000 5.014999389648 159 159 159
13.015625000000 6.773437500000 4.991996765137 153 153 153
13.015625000000 6.773437500000 4.968002319336 158 158 158
13.015625000000 6.773437500000 4.944999694824 150 150 150
12.984375000000 6.789062500000 3.569000244141 162 162 162
12.984375000000 6.789062500000 3.541999816895 155 155 155
12.984375000000 6.789062500000 3.512001037598 149 149 149
12.984375000000 6.789062500000 3.477996826172 150 150 150
12.984375000000 6.789062500000 3.453002929688 154 154 154
12.984375000000 6.789062500000 3.420997619629 152 152 152
12.984375000000 6.789062500000 3.391998291016 155 155 155
13.000000000000 6.781250000000 3.374000549316 163 163 163
13.046875000000 6.757812500000 3.365997314453 134 134 134
13.109375000000 6.726562500000 3.372001647949 139 139 139
13.140625000000 6.703125000000 3.373001098633 148 148 148
13.171875000000 6.679687500000 3.365997314453 151 151 151
13.234375000000 6.648437500000 3.370002746582 150 150 150
13.281250000000 6.625000000000 3.369003295898 148 148 148
13.328125000000 6.593750000000 3.369003295898 133 133 133
13.296875000000 6.617187500000 3.319000244141 144 144 144
13.156250000000 6.687500000000 3.206001281738 159 159 159
13.343750000000 6.890625000000 7.265998840332 169 169 169
13.343750000000 6.890625000000 7.238998413086 167 167 167
13.359375000000 6.890625000000 7.209999084473 165 165 165
13.343750000000 6.890625000000 7.185997009277 163 163 163
13.343750000000 6.890625000000 7.161003112793 167 167 167
13.359375000000 6.890625000000 7.131996154785 171 171 171
13.343750000000 6.890625000000 7.110000610352 169 169 169
13.359375000000 6.890625000000 7.078002929688 165 165 165
13.343750000000 6.890625000000 7.056999206543 169 169 169
13.343750000000 6.890625000000 7.030998229980 168 168 168
13.343750000000 6.890625000000 7.006996154785 168 168 168
13.343750000000 6.890625000000 6.982002258301 168 168 168
13.359375000000 6.890625000000 6.953002929688 169 169 169
13.343750000000 6.890625000000 6.930999755859 165 165 165
13.343750000000 6.890625000000 6.907997131348 169 169 169
13.343750000000 6.890625000000 6.880996704102 164 164 164
13.343750000000 6.898437500000 6.861000061035 164 164 164
13.359375000000 6.890625000000 6.831001281738 163 163 163
13.343750000000 6.890625000000 6.807998657227 162 162 162
13.359375000000 6.890625000000 6.782997131348 169 169 169
13.343750000000 6.890625000000 6.760002136230 167 167 167
13.359375000000 6.890625000000 6.734001159668 168 168 168
13.359375000000 6.890625000000 6.708999633789 167 167 167
13.359375000000 6.890625000000 6.688003540039 164 164 164
13.343750000000 6.890625000000 6.665000915527 166 166 166
13.359375000000 6.890625000000 6.636001586914 167 167 167
13.359375000000 6.890625000000 6.616996765137 168 168 168
13.359375000000 6.890625000000 6.591003417969 172 172 172
13.359375000000 6.890625000000 6.569999694824 168 168 168
13.343750000000 6.890625000000 6.547996520996 168 168 168
13.359375000000 6.890625000000 6.522003173828 167 167 167
13.359375000000 6.890625000000 6.499000549316 168 168 168
13.359375000000 6.890625000000 6.474998474121 168 168 168
13.359375000000 6.890625000000 6.453002929688 169 169 169
13.359375000000 6.890625000000 6.430999755859 169 169 169
13.359375000000 6.890625000000 6.408996582031 169 169 169
13.359375000000 6.890625000000 6.386001586914 170 170 170
13.359375000000 6.890625000000 6.363998413086 171 171 171
13.359375000000 6.890625000000 6.341003417969 169 169 169
13.359375000000 6.882812500000 6.317001342773 169 169 169
13.359375000000 6.890625000000 6.297996520996 168 168 168
13.359375000000 6.890625000000 6.274002075195 173 173 173
13.375000000000 6.875000000000 6.249000549316 170 170 170
13.359375000000 6.890625000000 6.227996826172 170 170 170
13.359375000000 6.890625000000 6.207000732422 170 170 170
13.359375000000 6.890625000000 6.185997009277 172 172 172
13.359375000000 6.890625000000 6.163002014160 170 170 170
13.359375000000 6.890625000000 6.140998840332 167 167 167
13.359375000000 6.890625000000 6.120002746582 170 170 170
13.359375000000 6.890625000000 6.097999572754 169 169 169
13.359375000000 6.882812500000 6.074996948242 170 170 170
13.359375000000 6.890625000000 6.055000305176 169 169 169
13.359375000000 6.882812500000 6.031997680664 171 171 171
13.359375000000 6.890625000000 6.011001586914 172 172 172
13.359375000000 6.882812500000 5.988998413086 168 168 168
13.359375000000 6.890625000000 5.968002319336 169 169 169
13.375000000000 6.875000000000 5.945999145508 172 172 172
13.359375000000 6.890625000000 5.926002502441 172 172 172
13.359375000000 6.890625000000 5.903999328613 172 172 172
13.359375000000 6.890625000000 5.883003234863 170 170 170
13.375000000000 6.875000000000 5.861000061035 175 175 175
13.375000000000 6.875000000000 5.837997436523 173 173 173
13.359375000000 6.890625000000 5.819000244141 171 171 171
13.359375000000 6.890625000000 5.797996520996 173 173 173
13.375000000000 6.875000000000 5.776000976563 173 173 173
13.359375000000 6.890625000000 5.755996704102 175 175 175
13.375000000000 6.875000000000 5.734001159668 171 171 171
13.359375000000 6.890625000000 5.713996887207 176 176 176
13.359375000000 6.890625000000 5.693000793457 175 175 175
13.375000000000 6.875000000000 5.670997619629 173 173 173
13.375000000000 6.875000000000 5.650001525879 174 174 174
13.375000000000 6.875000000000 5.628997802734 171 171 171
13.359375000000 6.890625000000 5.609001159668 175 175 175
13.375000000000 6.875000000000 5.586997985840 174 174 174
13.375000000000 6.875000000000 5.566001892090 173 173 173
13.359375000000 6.890625000000 5.545997619629 174 174 174
13.375000000000 6.875000000000 5.524002075195 173 173 173
13.375000000000 6.875000000000 5.503997802734 172 172 172
13.375000000000 6.875000000000 5.483001708984 174 174 174
13.375000000000 6.875000000000 5.461997985840 171 171 171
13.375000000000 6.875000000000 5.441001892090 171 171 171
13.375000000000 6.875000000000 5.419998168945 171 171 171
13.375000000000 6.875000000000 5.399002075195 170 170 170
13.375000000000 6.875000000000 5.378997802734 166 166 166
13.375000000000 6.875000000000 5.358001708984 170 170 170
13.375000000000 6.875000000000 5.336997985840 170 170 170
13.375000000000 6.875000000000 5.316001892090 171 171 171
13.359375000000 6.890625000000 5.294998168945 172 172 172
13.359375000000 6.890625000000 5.274002075195 173 173 173
13.375000000000 6.875000000000 5.253997802734 173 173 173
13.375000000000 6.875000000000 5.233001708984 173 173 173
13.375000000000 6.875000000000 5.211997985840 171 171 171
13.375000000000 6.875000000000 5.191001892090 171 171 171
13.375000000000 6.875000000000 5.169998168945 171 171 171
13.375000000000 6.875000000000 5.149002075195 171 171 171
13.375000000000 6.875000000000 5.128997802734 170 170 170
13.375000000000 6.875000000000 5.108001708984 173 173 173
13.390625000000 6.875000000000 5.087997436523 171 171 171
13.375000000000 6.875000000000 5.066001892090 171 171 171
13.390625000000 6.875000000000 5.045997619629 169 169 169
13.375000000000 6.875000000000 5.024002075195 170 170 170
13.390625000000 6.875000000000 5.003997802734 169 169 169
13.375000000000 6.875000000000 4.982002258301 171 171 171
13.375000000000 6.875000000000 4.959999084473 169 169 169
13.375000000000 6.875000000000 4.940002441406 172 172 172
13.390625000000 6.875000000000 4.918998718262 167 167 167
13.375000000000 6.875000000000 4.897003173828 167 167 167
13.375000000000 6.875000000000 4.875999450684 167 167 167
13.375000000000 6.875000000000 4.855003356934 170 170 170
13.375000000000 6.875000000000 4.833999633789 168 168 168
13.375000000000 6.875000000000 4.813003540039 168 168 168
13.390625000000 6.875000000000 4.791999816895 168 168 168
13.390625000000 6.875000000000 4.770996093750 167 167 167
13.375000000000 6.875000000000 4.748001098633 169 169 169
13.390625000000 6.875000000000 4.727996826172 166 166 166
13.390625000000 6.875000000000 4.707000732422 164 164 164
13.375000000000 6.875000000000 4.682998657227 166 166 166
13.390625000000 6.875000000000 4.664001464844 165 165 165
13.375000000000 6.875000000000 4.639999389648 167 167 167
13.375000000000 6.875000000000 4.617996215820 166 166 166
13.390625000000 6.875000000000 4.598999023438 164 164 164
13.390625000000 6.875000000000 4.577003479004 166 166 166
13.390625000000 6.875000000000 4.555999755859 164 164 164
13.390625000000 6.875000000000 4.532997131348 164 164 164
13.375000000000 6.875000000000 4.508003234863 162 162 162
13.390625000000 6.875000000000 4.488998413086 162 162 162
13.390625000000 6.875000000000 4.468002319336 161 161 161
13.390625000000 6.875000000000 4.444999694824 162 162 162
13.390625000000 6.875000000000 4.424003601074 163 163 163
13.390625000000 6.875000000000 4.400001525879 162 162 162
13.390625000000 6.875000000000 4.378997802734 160 160 160
13.390625000000 6.875000000000 4.357002258301 160 160 160
13.390625000000 6.875000000000 4.333000183105 160 160 160
13.390625000000 6.875000000000 4.311996459961 162 162 162
13.390625000000 6.875000000000 4.287002563477 159 159 159
13.390625000000 6.875000000000 4.265998840332 161 161 161
13.390625000000 6.875000000000 4.245002746582 162 162 162
13.390625000000 6.875000000000 4.222000122070 158 158 158
13.390625000000 6.875000000000 4.197998046875 161 161 161
13.390625000000 6.875000000000 4.172996520996 159 159 159
13.390625000000 6.875000000000 4.151000976563 154 154 154
13.390625000000 6.875000000000 4.125999450684 152 152 152
13.390625000000 6.875000000000 4.107002258301 154 154 154
13.390625000000 6.875000000000 4.081001281738 151 151 151
13.390625000000 6.875000000000 4.057998657227 150 150 150
13.406250000000 6.867187500000 4.038002014160 150 150 150
13.390625000000 6.867187500000 4.013000488281 147 147 147
13.390625000000 6.875000000000 3.985000610352 143 143 143
13.390625000000 6.875000000000 3.962997436523 148 148 148
13.390625000000 6.875000000000 3.941001892090 145 145 145
13.390625000000 6.875000000000 3.916000366211 146 146 146
13.390625000000 6.875000000000 3.890998840332 141 141 141
13.390625000000 6.875000000000 3.866996765137 144 144 144
13.390625000000 6.875000000000 3.843002319336 147 147 147
13.390625000000 6.875000000000 3.817001342773 143 143 143
13.390625000000 6.875000000000 3.790000915527 145 145 145
13.390625000000 6.875000000000 3.768997192383 145 145 145
13.390625000000 6.875000000000 3.739997863770 145 145 145
13.406250000000 6.867187500000 3.721000671387 142 142 142
13.406250000000 6.867187500000 3.698997497559 143 143 143
13.406250000000 6.867187500000 3.668998718262 138 138 138
13.390625000000 6.875000000000 3.639999389648 140 140 140
13.406250000000 6.867187500000 3.620002746582 140 140 140
13.390625000000 6.875000000000 3.589996337891 142 142 142
13.406250000000 6.867187500000 3.569000244141 147 147 147
13.406250000000 6.867187500000 3.542999267578 140 140 140
13.390625000000 6.875000000000 3.510002136230 139 139 139
13.406250000000 6.867187500000 3.487998962402 138 138 138
13.406250000000 6.867187500000 3.462997436523 139 139 139
13.406250000000 6.867187500000 3.435997009277 141 141 141
13.406250000000 6.867187500000 3.411003112793 151 151 151
13.406250000000 6.867187500000 3.387001037598 169 169 169
13.421875000000 6.851562500000 3.369003295898 160 160 160
13.468750000000 6.828125000000 3.364997863770 137 137 137
13.484375000000 6.812500000000 3.363998413086 154 154 154
13.343750000000 6.898437500000 3.232002258301 199 199 199
13.453125000000 7.164062500000 3.430999755859 123 123 123
13.453125000000 7.156250000000 3.404998779297 158 158 158
13.468750000000 7.148437500000 3.388000488281 154 154 154
13.484375000000 7.140625000000 3.372001647949 152 152 152
13.484375000000 7.140625000000 3.347000122070 146 146 146
13.453125000000 7.156250000000 3.301002502441 167 167 167
13.453125000000 7.156250000000 3.270996093750 139 139 139
13.453125000000 7.156250000000 3.240997314453 142 142 142
13.468750000000 6.710937500000 3.333000183105 152 152 152
13.484375000000 6.718750000000 3.369003295898 156 156 156
13.453125000000 6.695312500000 3.367996215820 133 133 133
13.421875000000 6.679687500000 3.371002197266 139 139 139
13.359375000000 6.656250000000 3.366996765137 137 137 137
13.328125000000 6.625000000000 3.370002746582 141 141 141
13.265625000000 6.601562500000 3.366996765137 138 138 138
13.250000000000 6.585937500000 3.378997802734 76 76 76
13.328125000000 6.687500000000 5.208000183105 124 124 124
13.343750000000 6.687500000000 5.228996276855 163 163 163
13.343750000000 6.687500000000 5.250000000000 154 154 154
13.312500000000 6.679687500000 5.269996643066 159 159 159
13.296875000000 6.679687500000 5.291000366211 156 156 156
13.296875000000 6.679687500000 5.311996459961 155 155 155
13.359375000000 6.703125000000 5.333999633789 133 133 133
13.343750000000 6.695312500000 5.355003356934 132 132 132
13.296875000000 6.679687500000 5.375000000000 159 159 159
13.296875000000 6.679687500000 5.395996093750 155 155 155
13.296875000000 6.679687500000 5.416999816895 156 156 156
13.328125000000 6.703125000000 5.438003540039 163 163 163
13.328125000000 6.703125000000 5.458999633789 160 160 160
13.296875000000 6.687500000000 5.480003356934 131 131 131
13.281250000000 6.679687500000 5.501998901367 65 65 65
13.312500000000 6.695312500000 5.648002624512 152 152 152
13.296875000000 6.687500000000 5.669998168945 153 153 153
13.312500000000 6.695312500000 5.690002441406 148 148 148
13.296875000000 6.687500000000 5.711997985840 150 150 150
13.281250000000 6.687500000000 5.734001159668 150 150 150
13.296875000000 6.695312500000 5.754997253418 152 152 152
13.281250000000 6.687500000000 5.777999877930 148 148 148
13.281250000000 6.687500000000 5.800003051758 150 150 150
13.281250000000 6.687500000000 5.820999145508 152 152 152
13.281250000000 6.679687500000 5.843002319336 155 155 155
13.281250000000 6.687500000000 5.863998413086 157 157 157
13.359375000000 6.718750000000 5.875000000000 118 118 118
13.343750000000 6.710937500000 5.898002624512 126 126 126
13.265625000000 6.679687500000 5.930000305176 151 151 151
13.265625000000 6.679687500000 5.952003479004 149 149 149
13.250000000000 6.671875000000 5.975997924805 151 151 151
13.265625000000 6.679687500000 5.996002197266 152 152 152
13.250000000000 6.671875000000 6.019996643066 149 149 149
13.265625000000 6.687500000000 6.039001464844 151 151 151
13.250000000000 6.671875000000 6.063003540039 147 147 147
13.250000000000 6.679687500000 6.084999084473 150 150 150
13.250000000000 6.679687500000 6.107002258301 151 151 151
13.250000000000 6.679687500000 6.127998352051 151 151 151
13.296875000000 6.703125000000 6.142997741699 124 124 124
13.265625000000 6.695312500000 6.191001892090 72 72 72
13.234375000000 6.671875000000 6.222000122070 116 116 116
13.250000000000 6.671875000000 6.241996765137 113 113 113
13.250000000000 6.679687500000 6.263999938965 114 114 114
13.250000000000 6.671875000000 6.288002014160 116 116 116
13.250000000000 6.679687500000 6.309997558594 114 114 114
13.250000000000 6.671875000000 6.333000183105 113 113 113
13.234375000000 6.679687500000 6.359001159668 115 115 115
13.234375000000 6.679687500000 6.379997253418 114 114 114
13.234375000000 6.671875000000 6.406997680664 113 113 113
13.234375000000 6.687500000000 6.426002502441 110 110 110
13.234375000000 6.679687500000 6.449996948242 111 111 111
13.296875000000 6.710937500000 6.458000183105 119 119 119
13.296875000000 6.703125000000 6.481002807617 119 119 119
13.234375000000 6.679687500000 6.519996643066 114 114 114
13.234375000000 6.687500000000 6.541000366211 109 109 109
13.234375000000 6.687500000000 6.567001342773 108 108 108
13.234375000000 6.679687500000 6.594001770020 109 109 109
13.234375000000 6.679687500000 6.617996215820 112 112 112
13.234375000000 6.679687500000 6.638999938965 110 110 110
13.234375000000 6.679687500000 6.664001464844 107 107 107
13.234375000000 6.679687500000 6.689002990723 118 118 118
13.234375000000 6.687500000000 6.711997985840 122 122 122
13.218750000000 6.679687500000 6.738998413086 115 115 115
13.218750000000 6.679687500000 6.763000488281 109 109 109
13.218750000000 6.679687500000 6.789001464844 110 110 110
13.218750000000 6.679687500000 6.814002990723 114 114 114
13.203125000000 6.671875000000 6.845001220703 113 113 113
13.234375000000 6.687500000000 6.859001159668 117 117 117
13.218750000000 6.679687500000 6.888999938965 114 114 114
13.343750000000 6.960937500000 3.230003356934 202 202 202
13.500000000000 7.046875000000 3.362998962402 154 154 154
13.468750000000 7.031250000000 3.370002746582 143 143 143
13.406250000000 7.000000000000 3.365997314453 165 165 165
13.390625000000 6.992187500000 3.380996704102 176 176 176
13.390625000000 6.992187500000 3.406997680664 154 154 154
13.390625000000 6.984375000000 3.430999755859 135 135 135
13.390625000000 6.992187500000 3.460998535156 136 136 136
13.390625000000 6.984375000000 3.483001708984 140 140 140
13.390625000000 6.992187500000 3.513000488281 140 140 140
13.390625000000 6.984375000000 3.536003112793 135 135 135
13.390625000000 6.992187500000 3.563003540039 138 138 138
13.343750000000 6.960937500000 3.555000305176 142 142 142
13.312500000000 6.945312500000 3.569999694824 153 153 153
13.312500000000 6.953125000000 3.597000122070 141 141 141
13.312500000000 6.945312500000 3.622001647949 149 149 149
13.312500000000 6.945312500000 3.643997192383 149 149 149
13.296875000000 6.937500000000 3.667999267578 147 147 147
13.296875000000 6.945312500000 3.690002441406 144 144 144
13.296875000000 6.945312500000 3.713996887207 148 148 148
13.328125000000 6.953125000000 3.752998352051 135 135 135
13.312500000000 6.953125000000 3.777000427246 121 121 121
13.312500000000 6.953125000000 3.800003051758 128 128 128
13.296875000000 6.945312500000 3.815002441406 128 128 128
13.265625000000 6.929687500000 3.832000732422 129 129 129
13.265625000000 6.937500000000 3.858001708984 139 139 139
13.328125000000 6.968750000000 3.908996582031 129 129 129
13.328125000000 6.960937500000 3.929000854492 136 136 136
13.328125000000 6.968750000000 3.956001281738 139 139 139
13.328125000000 6.960937500000 3.978996276855 136 136 136
13.328125000000 6.968750000000 4.002998352051 140 140 140
13.328125000000 6.960937500000 4.025001525879 148 148 148
13.250000000000 6.921875000000 4.020996093750 155 155 155
13.218750000000 6.914062500000 4.033996582031 159 159 159
13.218750000000 6.898437500000 4.054000854492 160 160 160
13.203125000000 6.890625000000 4.072998046875 156 156 156
13.187500000000 6.882812500000 4.088996887207 162 162 162
13.171875000000 6.882812500000 4.111999511719 165 165 165
13.140625000000 6.875000000000 4.128997802734 170 170 170
13.140625000000 6.867187500000 4.149002075195 170 170 170
13.125000000000 6.851562500000 4.166999816895 172 172 172
13.109375000000 6.851562500000 4.189002990723 172 172 172
13.093750000000 6.851562500000 4.207000732422 170 170 170
13.093750000000 6.843750000000 4.226997375488 166 166 166
13.078125000000 6.835937500000 4.247001647949 167 167 167
13.062500000000 6.828125000000 4.268997192383 166 166 166
13.046875000000 6.820312500000 4.291000366211 164 164 164
13.062500000000 6.828125000000 4.317001342773 135 135 135
13.062500000000 6.828125000000 4.341003417969 159 159 159
13.046875000000 6.820312500000 4.362998962402 157 157 157
13.062500000000 6.828125000000 4.388000488281 159 159 159
13.062500000000 6.828125000000 4.413002014160 159 159 159
13.046875000000 6.828125000000 4.432998657227 159 159 159
13.031250000000 6.820312500000 4.455001831055 160 160 160
13.046875000000 6.828125000000 4.482002258301 161 161 161
13.046875000000 6.828125000000 4.503997802734 160 160 160
13.046875000000 6.828125000000 4.527999877930 156 156 156
13.046875000000 6.828125000000 4.553001403809 161 161 161
13.046875000000 6.828125000000 4.575996398926 165 165 165
13.015625000000 6.820312500000 4.597999572754 161 161 161
13.046875000000 6.828125000000 4.622001647949 164 164 164
13.015625000000 6.820312500000 4.644996643066 163 163 163
13.046875000000 6.828125000000 4.669998168945 165 165 165
13.046875000000 6.828125000000 4.694000244141 164 164 164
13.015625000000 6.820312500000 4.714996337891 165 165 165
13.015625000000 6.820312500000 4.738998413086 168 168 168
13.015625000000 6.820312500000 4.763000488281 167 167 167
13.015625000000 6.820312500000 4.784996032715 166 166 166
13.015625000000 6.820312500000 4.807998657227 169 169 169
13.015625000000 6.820312500000 4.832000732422 166 166 166
13.015625000000 6.820312500000 4.855003356934 160 160 160
13.203125000000 6.921875000000 4.905998229980 143 143 143
13.265625000000 6.960937500000 4.935997009277 109 109 109
13.265625000000 6.960937500000 4.958000183105 110 110 110
13.265625000000 6.960937500000 4.980003356934 115 115 115
13.265625000000 6.960937500000 5.000999450684 117 117 117
13.265625000000 6.960937500000 5.022003173828 113 113 113
13.265625000000 6.960937500000 5.043998718262 111 111 111
13.093750000000 6.867187500000 5.049003601074 153 153 153
13.015625000000 6.828125000000 5.064002990723 165 165 165
13.000000000000 6.828125000000 5.085998535156 165 165 165
13.000000000000 6.828125000000 5.109001159668 163 163 163
13.000000000000 6.828125000000 5.131996154785 165 165 165
13.015625000000 6.835937500000 5.155998229980 173 173 173
13.015625000000 6.835937500000 5.179000854492 171 171 171
13.015625000000 6.835937500000 5.202003479004 172 172 172
13.015625000000 6.835937500000 5.224998474121 173 173 173
13.015625000000 6.835937500000 5.248001098633 176 176 176
13.031250000000 6.835937500000 5.270996093750 176 176 176
13.015625000000 6.835937500000 5.292999267578 176 176 176
13.015625000000 6.843750000000 5.316001892090 175 175 175
13.015625000000 6.835937500000 5.338996887207 176 176 176
13.015625000000 6.843750000000 5.361999511719 174 174 174
13.015625000000 6.843750000000 5.385002136230 173 173 173
13.015625000000 6.843750000000 5.407997131348 173 173 173
13.015625000000 6.843750000000 5.430999755859 170 170 170
13.015625000000 6.843750000000 5.454002380371 170 170 170
13.015625000000 6.843750000000 5.476997375488 169 169 169
13.031250000000 6.843750000000 5.499000549316 174 174 174
13.031250000000 6.843750000000 5.522003173828 171 171 171
13.015625000000 6.851562500000 5.544998168945 172 172 172
13.031250000000 6.851562500000 5.568000793457 169 169 169
13.031250000000 6.851562500000 5.591003417969 170 170 170
13.031250000000 6.843750000000 5.613998413086 172 172 172
13.031250000000 6.851562500000 5.636001586914 174 174 174
13.031250000000 6.851562500000 5.659996032715 171 171 171
13.031250000000 6.851562500000 5.681999206543 173 173 173
13.015625000000 6.859375000000 5.706001281738 175 175 175
13.015625000000 6.851562500000 5.728996276855 175 175 175
13.031250000000 6.851562500000 5.750999450684 179 179 179
13.031250000000 6.851562500000 5.774002075195 176 176 176
13.015625000000 6.859375000000 5.797996520996 177 177 177
13.031250000000 6.859375000000 5.819999694824 173 173 173
13.031250000000 6.859375000000 5.843002319336 176 176 176
13.031250000000 6.859375000000 5.865997314453 177 177 177
13.031250000000 6.859375000000 5.889999389648 176 176 176
13.031250000000 6.859375000000 5.913002014160 175 175 175
13.031250000000 6.859375000000 5.935997009277 176 176 176
13.031250000000 6.859375000000 5.958999633789 177 177 177
13.031250000000 6.859375000000 5.983001708984 175 175 175
13.031250000000 6.867187500000 6.003997802734 177 177 177
13.031250000000 6.867187500000 6.027999877930 177 177 177
13.031250000000 6.859375000000 6.052001953125 173 173 173
13.140625000000 6.929687500000 6.052001953125 134 134 134
13.265625000000 6.992187500000 6.051002502441 138 138 138
13.265625000000 6.992187500000 6.072998046875 173 173 173
13.265625000000 6.992187500000 6.095001220703 183 183 183
13.250000000000 7.000000000000 6.117996215820 190 190 190
13.250000000000 6.992187500000 6.139999389648 188 188 188
13.250000000000 6.992187500000 6.164001464844 161 161 161
13.031250000000 6.867187500000 6.237998962402 175 175 175
13.031250000000 6.867187500000 6.263999938965 175 175 175
13.031250000000 6.867187500000 6.287002563477 175 175 175
13.031250000000 6.875000000000 6.308998107910 175 175 175
13.031250000000 6.867187500000 6.335998535156 175 175 175
13.031250000000 6.875000000000 6.358001708984 173 173 173
13.031250000000 6.867187500000 6.384002685547 173 173 173
13.031250000000 6.867187500000 6.408996582031 175 175 175
13.031250000000 6.875000000000 6.430000305176 174 174 174
13.031250000000 6.875000000000 6.455001831055 176 176 176
13.031250000000 6.875000000000 6.480003356934 172 172 172
13.031250000000 6.875000000000 6.503997802734 172 172 172
13.046875000000 6.882812500000 6.526000976563 171 171 171
13.031250000000 6.882812500000 6.551002502441 171 171 171
13.031250000000 6.882812500000 6.575996398926 170 170 170
13.031250000000 6.882812500000 6.600997924805 173 173 173
13.046875000000 6.890625000000 6.624000549316 173 173 173
13.031250000000 6.882812500000 6.651000976563 170 170 170
13.031250000000 6.882812500000 6.676002502441 171 171 171
13.046875000000 6.890625000000 6.698997497559 171 171 171
13.046875000000 6.890625000000 6.723999023438 175 175 175
13.046875000000 6.890625000000 6.749000549316 171 171 171
13.046875000000 6.890625000000 6.773002624512 172 172 172
13.031250000000 6.890625000000 6.802001953125 173 173 173
13.046875000000 6.890625000000 6.825996398926 174 174 174
13.046875000000 6.898437500000 6.848999023438 173 173 173
13.046875000000 6.890625000000 6.876998901367 175 175 175
13.046875000000 6.898437500000 6.902000427246 171 171 171
13.031250000000 6.890625000000 6.930999755859 172 172 172
13.046875000000 6.898437500000 6.954002380371 172 172 172
13.046875000000 6.898437500000 6.981002807617 171 171 171
13.031250000000 6.898437500000 7.008003234863 174 174 174
13.046875000000 6.898437500000 7.032997131348 174 174 174
13.046875000000 6.898437500000 7.057998657227 171 171 171
13.046875000000 6.898437500000 7.084999084473 170 170 170
13.062500000000 6.906250000000 7.111000061035 171 171 171
13.062500000000 6.906250000000 7.138999938965 170 170 170
13.062500000000 6.906250000000 7.165000915527 172 172 172
13.062500000000 6.906250000000 7.194000244141 171 171 171
13.062500000000 6.914062500000 7.218002319336 170 170 170
13.062500000000 6.914062500000 7.246002197266 170 170 170
13.078125000000 6.914062500000 7.264999389648 159 159 159
13.140625000000 6.960937500000 7.250999450684 108 108 108
13.078125000000 7.140625000000 3.282997131348 145 145 145
13.171875000000 7.195312500000 3.367996215820 134 134 134
13.140625000000 7.171875000000 3.372001647949 144 144 144
13.093750000000 7.148437500000 3.375000000000 150 150 150
13.046875000000 7.117187500000 3.372001647949 141 141 141
12.984375000000 7.085937500000 3.372001647949 158 158 158
