24.303291320801 17.943218231201 2.244000434875 162 162 162
24.427282333374 17.927368164063 2.196999549866 199 199 199
24.411783218384 17.929349899292 2.122000694275 139 139 139
24.302938461304 17.817245483398 2.244999885559 172 172 172
24.419006347656 17.739400863647 2.199000358582 197 197 197
24.419006347656 17.739400863647 2.123999595642 154 154 154
24.302589416504 17.691272735596 2.244000434875 179 179 179
24.434154510498 17.611446380615 2.200999259949 190 190 190
24.418655395508 17.613428115845 2.124999046326 171 171 171
24.317737579346 17.563320159912 2.248000144958 181 181 181
24.449304580688 17.483493804932 2.206000328064 202 202 202
24.433805465698 17.485475540161 2.130999565125 186 186 186
24.301889419556 17.439329147339 2.248999595642 180 180 180
24.448953628540 17.357521057129 2.211998939514 203 203 203
24.448953628540 17.357521057129 2.137000083923 204 204 204
24.301540374756 17.313356399536 2.251999855042 174 174 174
24.456178665161 17.167572021484 2.214999198914 218 218 218
24.456178665161 17.167572021484 2.143000602722 213 213 213
24.293266296387 17.125389099121 2.256999015808 167 167 167
24.471326828003 17.039619445801 2.223000526428 214 214 214
24.471326828003 17.039619445801 2.151999473572 212 212 212
24.292915344238 16.999416351318 2.258999824524 169 169 169
24.470977783203 16.913646697998 2.227999687195 216 216 216
24.486476898193 16.911666870117 2.157000541687 214 214 214
24.277067184448 16.875425338745 2.256999015808 179 179 179
24.470626831055 16.787673950195 2.228999137878 213 213 213
24.470626831055 16.787673950195 2.157999992371 211 211 211
24.276716232300 16.749452590942 2.256999015808 189 189 189
24.477851867676 16.597724914551 2.231999397278 212 212 212
24.477851867676 16.597724914551 2.161000251770 214 214 214
24.276367187500 16.623481750488 2.256999015808 196 196 196
24.493001937866 16.469772338867 2.233000755310 214 214 214
24.477502822876 16.471754074097 2.160000801086 215 215 215
24.276016235352 16.497509002686 2.254000663757 204 204 204
24.492650985718 16.343799591064 2.234999656677 217 217 217
24.492650985718 16.343799591064 2.162999153137 215 215 215
24.275665283203 16.371536254883 2.252999305725 211 211 211
24.507799148560 16.215847015381 2.237000465393 212 212 212
24.507799148560 16.215847015381 2.162999153137 215 215 215
24.267391204834 16.183567047119 2.252999305725 209 209 209
24.522949218750 16.087894439697 2.237999916077 216 216 216
24.522949218750 16.087894439697 2.167000770569 216 216 216
24.251543045044 16.059577941895 2.251999855042 209 209 209
24.514673233032 15.899925231934 2.241000175476 217 217 217
24.514673233032 15.899925231934 2.169999122620 214 214 214
24.251192092896 15.933604240417 2.252999305725 211 211 211
24.514324188232 15.773953437805 2.242999076843 222 222 222
24.529823303223 15.771972656250 2.175000190735 213 213 213
24.250843048096 15.807632446289 2.258000373840 210 210 210
24.544973373413 15.644018173218 2.251999855042 211 211 211
24.544973373413 15.644018173218 2.181000709534 211 211 211
24.250494003296 15.681659698486 2.259999275208 206 206 206
24.552196502686 15.454069137573 2.259999275208 211 211 211
24.567695617676 15.452088356018 2.192000389099 215 215 215
24.567695617676 15.452088356018 2.123000144958 111 111 111
24.257719039917 15.491710662842 2.415999412537 163 163 163
24.257719039917 15.491710662842 2.342999458313 163 163 163
24.242219924927 15.493691444397 2.265999794006 166 166 166
24.551845550537 15.328097343445 2.262999534607 196 196 196
24.582843780518 15.324134826660 2.199000358582 215 215 215
24.582843780518 15.324134826660 2.129000663757 175 175 175
24.226369857788 15.369700431824 2.265999794006 193 193 193
24.551496505737 15.202125549316 2.266999244690 162 162 162
24.597993850708 15.196182250977 2.206000328064 214 214 214
24.582494735718 15.198163032532 2.133000373840 201 201 201
24.226020812988 15.243728637695 2.268000602722 196 196 196
24.288015365601 15.235803604126 2.204998970032 216 216 216
24.597642898560 15.070209503174 2.206999778748 217 217 217
24.589719772339 15.008213996887 2.138998985291 206 206 206
24.225667953491 15.117755889893 2.265999794006 195 195 195
24.272165298462 15.111812591553 2.200999259949 218 218 218
24.589368820190 14.882241249084 2.210000038147 214 214 214
24.604867935181 14.880260467529 2.140999794006 212 212 212
24.209819793701 14.993764877319 2.261000633240 210 210 210
24.240818023682 14.989803314209 2.192999839783 215 215 215
24.604516983032 14.754287719727 2.211998939514 216 216 216
24.620016098022 14.752306938171 2.143000602722 214 214 214
24.193971633911 14.869773864746 2.258000373840 214 214 214
24.209470748901 14.867792129517 2.188000679016 217 217 217
24.619667053223 14.626335144043 2.213000297546 215 215 215
24.619667053223 14.626335144043 2.143000602722 216 216 216
24.193620681763 14.743801116943 2.258000373840 208 208 208
24.193620681763 14.743801116943 2.182000160217 218 218 218
24.634815216064 14.498381614685 2.217000007629 214 214 214
24.634815216064 14.498381614685 2.147000312805 212 212 212
24.193271636963 14.617829322815 2.256999015808 214 214 214
24.193271636963 14.617829322815 2.182000160217 218 218 218
24.642040252686 14.308432579041 2.220000267029 205 205 205
24.634466171265 14.372407913208 2.147999763489 210 210 210
24.177421569824 14.493838310242 2.255999565125 205 205 205
24.177421569824 14.493838310242 2.179999351501 220 220 220
24.641691207886 14.182460784912 2.223000526428 206 206 206
24.641691207886 14.182460784912 2.151999473572 205 205 205
24.192571640015 14.365884780884 2.259999275208 208 208 208
24.184646606445 14.303888320923 2.185999870300 180 180 180
24.656837463379 14.054507255554 2.227000236511 217 217 217
24.656837463379 14.054507255554 2.158999443054 213 213 213
24.168798446655 14.179897308350 2.262000083923 212 212 212
24.168798446655 14.179897308350 2.185999870300 164 164 164
24.671987533569 13.926553726196 2.234999656677 215 215 215
24.671987533569 13.926553726196 2.164999961853 212 212 212
24.168449401855 14.053925514221 2.266999244690 206 206 206
24.168449401855 14.053925514221 2.189000129700 220 220 220
24.679212570190 13.736604690552 2.241000175476 216 216 216
24.663713455200 13.738585472107 2.171000480652 215 215 215
24.679212570190 13.736604690552 2.105000495911 100 100 100
24.168098449707 13.927953720093 2.268000602722 202 202 202
24.152599334717 13.929934501648 2.192000389099 220 220 220
24.678863525391 13.610631942749 2.245999336243 213 213 213
24.678863525391 13.610631942749 2.178000450134 212 212 212
24.678863525391 13.610631942749 2.106999397278 173 173 173
24.152250289917 13.803962707520 2.270998954773 195 195 195
24.152250289917 13.803962707520 2.193999290466 216 216 216
24.678512573242 13.484660148621 2.248999595642 211 211 211
24.694011688232 13.482679367065 2.182999610901 212 212 212
24.694011688232 13.482679367065 2.112999916077 205 205 205
24.151901245117 13.677989959717 2.272000312805 191 191 191
24.151901245117 13.677989959717 2.195000648499 218 218 218
24.662664413452 13.360669136047 2.248000144958 217 217 217
24.693660736084 13.356706619263 2.186999320984 215 215 215
24.693660736084 13.356706619263 2.117999076843 212 212 212
24.151550292969 13.552018165588 2.272000312805 189 189 189
24.151550292969 13.552018165588 2.196999549866 219 219 219
24.662313461304 13.234697341919 2.247000694275 214 214 214
24.700885772705 13.166757583618 2.190999031067 214 214 214
24.700885772705 13.166757583618 2.119999885559 213 213 213
24.151199340820 13.426046371460 2.270998954773 191 191 191
24.143274307251 13.364049911499 2.195000648499 219 219 219
24.630966186523 13.112687110901 2.240000724792 159 159 159
24.716033935547 13.038804054260 2.192999839783 213 213 213
24.716033935547 13.038804054260 2.123999595642 213 213 213
24.127426147461 13.240058898926 2.268000602722 192 192 192
24.142925262451 13.238077163696 2.192999839783 220 220 220
24.599618911743 12.990674972534 2.231999397278 150 150 150
24.731184005737 12.910850524902 2.193999290466 214 214 214
24.715684890747 12.912832260132 2.123000144958 218 218 218
24.142574310303 13.112105369568 2.269000053406 198 198 198
24.142574310303 13.112105369568 2.192999839783 162 162 162
24.142574310303 13.112105369568 2.115000724792 143 143 143
24.730834960938 12.784878730774 2.196000099182 214 214 214
24.730834960938 12.784878730774 2.126000404358 211 211 211
24.142225265503 12.986133575439 2.269000053406 183 183 183
24.142225265503 12.986133575439 2.192000389099 219 219 219
24.142225265503 12.986133575439 2.116000175476 182 182 182
24.745981216431 12.656925201416 2.197999000549 215 215 215
24.730484008789 12.658906936646 2.126999855042 216 216 216
24.141876220703 12.860160827637 2.270998954773 182 182 182
24.141876220703 12.860160827637 2.193999290466 217 217 217
24.141876220703 12.860160827637 2.117999076843 184 184 184
24.745632171631 12.530953407288 2.199999809265 215 215 215
24.737707138062 12.468956947327 2.130999565125 213 213 213
24.141525268555 12.734189033508 2.273999214172 165 165 165
24.141525268555 12.734189033508 2.199999809265 217 217 217
24.141525268555 12.734189033508 2.120999336243 201 201 201
24.737358093262 12.342985153198 2.204998970032 218 218 218
24.737358093262 12.342985153198 2.136000633240 215 215 215
24.768356323242 12.339022636414 2.074000358582 31 31 31
24.141176223755 12.608217239380 2.276999473572 93 93 93
24.141176223755 12.608217239380 2.203999519348 218 218 218
24.141176223755 12.608217239380 2.126000404358 215 215 215
24.752506256104 12.215031623840 2.211998939514 214 214 214
24.752506256104 12.215031623840 2.141999244690 212 212 212
24.752506256104 12.215031623840 2.074000358582 149 149 149
24.132902145386 12.420248031616 2.206999778748 218 218 218
24.132902145386 12.420248031616 2.130999565125 217 217 217
24.767656326294 12.087078094482 2.217000007629 209 209 209
24.767656326294 12.087078094482 2.148999214172 209 209 209
24.767656326294 12.087078094482 2.078999519348 195 195 195
24.132551193237 12.294276237488 2.211998939514 209 209 209
24.132551193237 12.294276237488 2.133999824524 211 211 211
24.767307281494 11.961106300354 2.221999168396 157 157 157
24.759382247925 11.899109840393 2.152998924255 140 140 140
24.759382247925 11.899109840393 2.085999488831 140 140 140
24.132200241089 12.168303489685 2.213999748230 200 200 200
24.163198471069 12.164341926575 2.143000602722 173 173 173
24.774528503418 11.771156311035 2.227000236511 147 147 147
24.759031295776 11.773138046265 2.157999992371 142 142 142
24.774528503418 11.771156311035 2.091000556946 147 147 147
24.147350311279 12.040350914001 2.216000556946 158 158 158
24.147350311279 12.040350914001 2.140000343323 161 161 161
24.774179458618 11.645184516907 2.227000236511 142 142 142
24.774179458618 11.645184516907 2.161000251770 137 137 137
24.774179458618 11.645184516907 2.091000556946 136 136 136
24.433553695679 11.814741134644 1.767000198364 255 255 255
24.611618041992 11.728973388672 1.753000259399 116 116 116
24.627115249634 11.726991653442 1.684999465942 130 130 130
24.627115249634 11.726991653442 1.611000061035 143 143 143
24.216569900513 11.842475891113 2.231999397278 141 141 141
24.657762527466 11.597055435181 2.265999794006 182 182 182
24.773830413818 11.519212722778 2.228999137878 143 143 143
24.773830413818 11.519212722778 2.161999702454 153 153 153
24.773830413818 11.519212722778 2.089999198914 151 151 151
24.642263412476 11.599037170410 1.980999946594 175 175 175
24.626764297485 11.601017951965 1.905999183655 173 173 173
24.642263412476 11.599037170410 1.836999893188 169 169 169
24.642263412476 11.599037170410 1.762000083923 168 168 168
24.626764297485 11.601017951965 1.687000274658 169 169 169
24.626764297485 11.601017951965 1.609999656677 150 150 150
24.510349273682 11.552890777588 2.299000740051 119 119 119
24.657413482666 11.471083641052 2.263998985291 177 177 177
24.672912597656 11.469102859497 2.200999259949 172 172 172
24.804477691650 11.389278411865 2.167000770569 145 145 145
24.804477691650 11.389278411865 2.098000526428 149 149 149
24.711484909058 11.401165008545 1.999999046326 178 178 178
24.641914367676 11.473064422607 1.905999183655 183 183 183
24.641914367676 11.473064422607 1.833000183105 179 179 179
24.641914367676 11.473064422607 1.760000228882 178 178 178
24.626415252686 11.475046157837 1.685999870300 178 178 178
24.641914367676 11.473064422607 1.612999916077 178 178 178
24.517923355103 11.488913536072 1.494999885559 122 122 122
24.510349273682 11.552890777588 1.413000106812 115 115 115
24.517923355103 11.488913536072 1.340000152588 118 118 118
24.479000091553 11.430881500244 2.293000221252 125 125 125
24.657064437866 11.345111846924 2.262999534607 174 174 174
24.672563552856 11.343130111694 2.196999549866 176 176 176
24.873697280884 11.191404342651 2.185999870300 165 165 165
24.873697280884 11.191404342651 2.117999076843 162 162 162
24.873697280884 11.191404342651 2.049000740051 167 167 167
24.641565322876 11.347092628479 1.904999732971 174 174 174
24.641565322876 11.347092628479 1.831999778748 176 176 176
24.641565322876 11.347092628479 1.762000083923 172 172 172
24.641565322876 11.347092628479 1.684999465942 175 175 175
24.626066207886 11.349073410034 1.609999656677 175 175 175
24.479000091553 11.430881500244 1.474999427795 140 140 140
24.463500976563 11.432862281799 1.394000053406 136 136 136
24.463500976563 11.432862281799 1.314000129700 123 123 123
24.463151931763 11.306890487671 2.286999702454 127 127 127
24.532722473145 11.234989166260 2.234000205994 158 158 158
24.532722473145 11.234989166260 2.161000251770 156 156 156
25.051410675049 10.979663848877 2.231999397278 121 121 121
25.120979309082 10.907760620117 2.189000129700 166 166 166
25.120979309082 10.907760620117 2.124999046326 163 163 163
25.105480194092 10.909742355347 2.057000160217 159 159 159
25.074481964111 10.913705825806 1.981999397278 151 151 151
24.532722473145 11.234989166260 1.723999977112 160 160 160
24.532722473145 11.234989166260 1.645999908447 161 161 161
24.532722473145 11.234989166260 1.571000099182 160 160 160
24.331235885620 11.260742187500 2.255000114441 156 156 156
24.315736770630 11.262723922729 2.178999900818 153 153 153
24.315736770630 11.262723922729 2.105000495911 149 149 149
25.027637481689 10.793676376343 2.230999946594 109 109 109
25.120630264282 10.781789779663 2.189999580383 158 158 158
25.120630264282 10.781789779663 2.123000144958 167 167 167
25.120630264282 10.781789779663 2.060000419617 174 174 174
25.105131149292 10.783771514893 1.987999916077 150 150 150
24.300237655640 11.264705657959 1.642000198364 153 153 153
24.300237655640 11.264705657959 1.559999465942 125 125 125
24.067754745483 11.294422149658 2.196000099182 179 179 179
24.067754745483 11.294422149658 2.117999076843 176 176 176
25.011789321899 10.669685363770 2.226000785828 112 112 112
25.089282989502 10.659778594971 2.182000160217 132 132 132
25.073783874512 10.661760330200 2.115000724792 130 130 130
25.073783874512 10.661760330200 2.050000190735 132 132 132
25.073783874512 10.661760330200 1.981999397278 43 43 43
24.005409240723 11.176374435425 2.262000083923 31 31 31
24.020908355713 11.174392700195 2.189999580383 151 151 151
24.020908355713 11.174392700195 2.110999107361 156 156 156
24.028133392334 10.984445571899 2.197999000549 159 159 159
24.012634277344 10.986425399780 2.116000175476 160 160 160
23.989210128784 10.926410675049 2.269999504089 140 140 140
24.027782440186 10.858470916748 2.199999809265 159 159 159
24.027782440186 10.858470916748 2.120999336243 159 159 159
23.981285095215 10.864414215088 2.032999992371 102 102 102
23.980936050415 10.738441467285 2.270998954773 139 139 139
24.027433395386 10.732498168945 2.203000068665 151 151 151
24.011934280396 10.734479904175 2.123000144958 151 151 151
23.895868301392 10.812324523926 2.009999275208 230 230 230
23.926515579224 10.682390213013 2.259999275208 129 129 129
23.911016464233 10.684371948242 2.178000450134 122 122 122
23.926515579224 10.682390213013 2.102000236511 123 123 123
25.135780334473 10.653835296631 1.973000526428 105 105 105
25.135780334473 10.653835296631 2.039000511169 128 128 128
25.135780334473 10.653835296631 2.102000236511 156 156 156
25.135780334473 10.653835296631 2.168999671936 124 124 124
25.136129379272 10.779808044434 1.968998908997 148 148 148
25.120630264282 10.781789779663 2.033999443054 172 172 172
25.120630264282 10.781789779663 2.098000526428 168 168 168
25.136129379272 10.779808044434 2.164999961853 153 153 153
25.011789321899 10.669685363770 2.196999549866 63 63 63
25.120979309082 10.907760620117 1.964999198914 142 142 142
25.120979309082 10.907760620117 2.032000541687 158 158 158
25.120979309082 10.907760620117 2.095000267029 175 175 175
25.120979309082 10.907760620117 2.161999702454 170 170 170
25.035562515259 10.855672836304 2.199999809265 67 67 67
24.989414215088 10.987588882446 1.988999366760 96 96 96
25.004913330078 10.985607147217 2.058999061584 93 93 93
25.004913330078 10.985607147217 2.123999595642 106 106 106
24.989414215088 10.987588882446 2.185999870300 114 114 114
24.888847351074 11.063449859619 2.020998954773 173 173 173
24.888847351074 11.063449859619 2.088999748230 163 163 163
24.888847351074 11.063449859619 2.158999443054 148 148 148
24.873697280884 11.191404342651 2.016999244690 156 156 156
24.873697280884 11.191404342651 2.085000038147 179 179 179
24.873697280884 11.191404342651 2.152998924255 176 176 176
23.988510131836 10.674467086792 1.995999336243 134 134 134
24.035007476807 10.668523788452 2.085999488831 147 147 147
24.019508361816 10.670503616333 2.161999702454 153 153 153
23.973011016846 10.676446914673 2.230000495911 97 97 97
24.843051910400 11.321338653564 2.006999015808 118 118 118
24.827552795410 11.323319435120 2.070000648499 178 178 178
24.827552795410 11.323319435120 2.140000343323 178 178 178
23.988861083984 10.800437927246 1.994999885559 119 119 119
24.019859313965 10.796476364136 2.081999778748 159 159 159
24.019859313965 10.796476364136 2.162999153137 161 161 161
23.988861083984 10.800437927246 2.231999397278 110 110 110
24.641565322876 11.347092628479 1.578999519348 178 178 178
24.641565322876 11.347092628479 1.656000137329 180 180 180
24.641565322876 11.347092628479 1.729000091553 182 182 182
24.657064437866 11.345111846924 1.805000305176 183 183 183
24.657064437866 11.345111846924 1.879000663757 181 181 181
24.641565322876 11.347092628479 1.949000358582 179 179 179
24.773479461670 11.393239974976 2.057000160217 154 154 154
24.773479461670 11.393239974976 2.126999855042 151 151 151
24.688062667847 11.341149330139 2.174000740051 164 164 164
24.657064437866 11.345111846924 2.234000205994 166 166 166
24.028133392334 10.984445571899 2.161999702454 150 150 150
23.989210128784 10.926410675049 2.230999946594 116 116 116
24.401157379150 11.314814567566 1.411999702454 240 240 240
24.641914367676 11.473064422607 1.578999519348 136 136 136
24.641914367676 11.473064422607 1.651999473572 176 176 176
24.641914367676 11.473064422607 1.729999542236 188 188 188
24.657413482666 11.471083641052 1.805999755859 191 191 191
24.641914367676 11.473064422607 1.873999595642 186 186 186
24.672912597656 11.469102859497 1.953999519348 157 157 157
24.781753540039 11.581207275391 2.057000160217 154 154 154
24.797252655029 11.579225540161 2.127999305725 154 154 154
24.727334976196 11.525156021118 2.182000160217 152 152 152
24.657413482666 11.471083641052 2.233000755310 176 176 176
24.440078735352 11.372846603394 2.252999305725 78 78 78
24.502424240112 11.490894317627 1.295999526978 160 160 160
24.510349273682 11.552890777588 1.375999450684 164 164 164
24.510349273682 11.552890777588 1.453000068665 178 178 178
24.626764297485 11.601017951965 1.576000213623 179 179 179
24.642263412476 11.599037170410 1.652999877930 182 182 182
24.642263412476 11.599037170410 1.725999832153 183 183 183
24.642263412476 11.599037170410 1.802999496460 183 183 183
24.657762527466 11.597055435181 1.875999450684 182 182 182
24.642263412476 11.599037170410 1.946000099182 185 185 185
24.782104492188 11.707180976868 2.054999351501 143 143 143
24.782104492188 11.707180976868 2.122000694275 150 150 150
24.766605377197 11.709161758423 2.186999320984 155 155 155
24.642263412476 11.599037170410 2.228999137878 184 184 184
24.471426010132 11.494856834412 2.259999275208 72 72 72
24.526197433472 11.676881790161 1.538000106812 205 205 205
24.557195663452 11.672920227051 1.621000289917 139 139 139
24.541696548462 11.674901008606 1.692999839783 140 140 140
24.541696548462 11.674901008606 1.762999534607 135 135 135
24.526197433472 11.676881790161 1.831999778748 137 137 137
24.495199203491 11.680844306946 1.901000022888 139 139 139
24.766956329346 11.835134506226 2.051999092102 143 143 143
24.766956329346 11.835134506226 2.119999885559 139 139 139
24.766956329346 11.835134506226 2.186999320984 157 157 157
24.456277847290 11.622810363770 2.181000709534 134 134 134
24.425279617310 11.626771926880 2.248999595642 133 133 133
24.309213638306 11.704617500305 1.609999656677 141 141 141
24.293714523315 11.706598281860 1.680999755859 140 140 140
24.293714523315 11.706598281860 1.760000228882 127 127 127
24.293714523315 11.706598281860 1.833999633789 109 109 109
24.767307281494 11.961106300354 2.049000740051 138 138 138
24.767307281494 11.961106300354 2.117999076843 143 143 143
24.767307281494 11.961106300354 2.186999320984 148 148 148
24.138376235962 11.600438117981 2.102999687195 131 131 131
24.138376235962 11.600438117981 2.181000709534 143 143 143
24.752157211304 12.089059829712 2.043000221252 180 180 180
24.775581359863 12.149072647095 2.115000724792 204 204 204
24.775581359863 12.149072647095 2.183999061584 206 206 206
24.138725280762 11.726409912109 2.099999427795 150 150 150
24.138725280762 11.726409912109 2.175999641418 153 153 153
24.760431289673 12.277026176453 2.040999412537 143 143 143
24.760431289673 12.277026176453 2.109999656677 208 208 208
24.775930404663 12.275045394897 2.181000709534 209 209 209
24.146999359131 11.914378166199 2.098999977112 155 155 155
24.146999359131 11.914378166199 2.175999641418 139 139 139
24.745281219482 12.404981613159 2.033999443054 53 53 53
24.760780334473 12.402999877930 2.106999397278 207 207 207
24.760780334473 12.402999877930 2.176999092102 207 207 207
24.162849426270 12.038369178772 2.099999427795 201 201 201
24.162849426270 12.038369178772 2.175999641418 194 194 194
24.745632171631 12.530953407288 2.102000236511 206 206 206
24.745632171631 12.530953407288 2.171999931335 210 210 210
24.147699356079 12.166322708130 2.095999717712 199 199 199
24.147699356079 12.166322708130 2.172999382019 208 208 208
24.745981216431 12.656925201416 2.098999977112 208 208 208
24.745981216431 12.656925201416 2.168999671936 208 208 208
24.148048400879 12.292294502258 2.091000556946 208 208 208
24.155973434448 12.354289054871 2.171000480652 206 206 206
24.730834960938 12.784878730774 2.096999168396 209 209 209
24.738758087158 12.846873283386 2.167000770569 207 207 207
24.156324386597 12.480263710022 2.092000007629 207 207 207
24.156324386597 12.480263710022 2.168999671936 208 208 208
24.739109039307 12.972845077515 2.095000267029 207 207 207
24.739109039307 12.972845077515 2.162999153137 207 207 207
24.141176223755 12.608217239380 2.089999198914 207 207 207
24.156675338745 12.606235504150 2.167000770569 208 208 208
24.723958969116 13.100800514221 2.088999748230 210 210 210
24.723958969116 13.100800514221 2.160000801086 209 209 209
24.126026153564 12.736169815063 2.085000038147 204 204 204
24.141525268555 12.734189033508 2.165999412537 208 208 208
24.126026153564 12.736169815063 2.237999916077 77 77 77
24.724308013916 13.226772308350 2.086998939514 206 206 206
24.724308013916 13.226772308350 2.157999992371 211 211 211
24.110877990723 12.864123344421 2.079998970032 201 201 201
24.141876220703 12.860160827637 2.164999961853 208 208 208
24.126377105713 12.862142562866 2.235999107361 110 110 110
24.709159851074 13.354725837708 2.084000587463 205 205 205
24.709159851074 13.354725837708 2.152998924255 206 206 206
24.126726150513 12.988114356995 2.081999778748 187 187 187
24.150150299072 13.048128128052 2.164000511169 197 197 197
24.150150299072 13.048128128052 2.238999366760 125 125 125
24.694011688232 13.482679367065 2.079998970032 197 197 197
24.694011688232 13.482679367065 2.148999214172 209 209 209
24.663013458252 13.486640930176 2.207999229431 236 236 236
24.150499343872 13.174101829529 2.161999702454 183 183 183
24.150499343872 13.174101829529 2.237999916077 154 154 154
24.694362640381 13.608651161194 2.074000358582 188 188 188
24.694362640381 13.608651161194 2.144999504089 209 209 209
24.678863525391 13.610631942749 2.210000038147 221 221 221
24.150848388672 13.300073623657 2.161000251770 206 206 206
24.150848388672 13.300073623657 2.234999656677 164 164 164
24.687137603760 13.798599243164 2.070000648499 90 90 90
24.687137603760 13.798599243164 2.138998985291 210 210 210
24.687137603760 13.798599243164 2.209000587463 207 207 207
24.174621582031 13.486059188843 2.158999443054 206 206 206
24.159122467041 13.488040924072 2.231999397278 189 189 189
24.671987533569 13.926553726196 2.063000679016 59 59 59
24.671987533569 13.926553726196 2.134999275208 207 207 207
24.687486648560 13.924572944641 2.206000328064 211 211 211
24.174972534180 13.612031936646 2.158999443054 206 206 206
24.159475326538 13.614012718201 2.233000755310 187 187 187
24.672336578369 14.052526473999 2.131999015808 207 207 207
24.672336578369 14.052526473999 2.202000617981 211 211 211
24.159824371338 13.739984512329 2.157000541687 209 209 209
24.159824371338 13.739984512329 2.231999397278 189 189 189
24.657188415527 14.180479049683 2.126000404358 210 210 210
24.657188415527 14.180479049683 2.196999549866 208 208 208
24.183597564697 13.925971984863 2.157999992371 205 205 205
24.168098449707 13.927953720093 2.231999397278 188 188 188
24.642040252686 14.308432579041 2.123000144958 208 208 208
24.642040252686 14.308432579041 2.192999839783 213 213 213
24.183948516846 14.051944732666 2.155999183655 205 205 205
24.183948516846 14.051944732666 2.230999946594 190 190 190
24.642391204834 14.434404373169 2.119999885559 210 210 210
24.650314331055 14.496400833130 2.190999031067 211 211 211
24.223220825195 14.235950469971 2.161999702454 99 99 99
24.168798446655 14.179897308350 2.230000495911 189 189 189
24.635166168213 14.624353408813 2.116000175476 211 211 211
24.635166168213 14.624353408813 2.186999320984 210 210 210
24.192571640015 14.365884780884 2.155999183655 208 208 208
24.192571640015 14.365884780884 2.230999946594 190 190 190
24.620016098022 14.752306938171 2.112999916077 209 209 209
24.620016098022 14.752306938171 2.182000160217 206 206 206
24.192920684814 14.491857528687 2.155999183655 207 207 207
24.192920684814 14.491857528687 2.230000495911 191 191 191
24.620365142822 14.878278732300 2.109999656677 210 210 210
24.620365142822 14.878278732300 2.181000709534 207 207 207
24.208770751953 14.615848541260 2.157000541687 207 207 207
24.193271636963 14.617829322815 2.228999137878 188 188 188
24.605218887329 15.006233215332 2.105999946594 205 205 205
24.605218887329 15.006233215332 2.174000740051 210 210 210
24.232543945313 14.801834106445 2.157999992371 206 206 206
24.193620681763 14.743801116943 2.227000236511 192 192 192
24.605567932129 15.132205009460 2.102999687195 197 197 197
24.590068817139 15.134186744690 2.171999931335 215 215 215
24.372734069824 15.035949707031 2.192000389099 217 217 217
24.201894760132 14.931768417358 2.227999687195 186 186 186
24.598342895508 15.322154045105 2.101000785828 197 197 197
24.590419769287 15.260158538818 2.168999671936 209 209 209
24.419580459595 15.155979156494 2.199000358582 214 214 214
24.217744827271 15.055761337280 2.227999687195 177 177 177
24.583194732666 15.450107574463 2.092000007629 161 161 161
24.583194732666 15.450107574463 2.162999153137 212 212 212
24.528774261475 15.394055366516 2.223000526428 207 207 207
24.241518020630 15.241746902466 2.230000495911 191 191 191
24.568044662476 15.578060150146 2.088000297546 118 118 118
24.568044662476 15.578060150146 2.157000541687 209 209 209
24.544622421265 15.518046379089 2.224999427795 199 199 199
24.241868972778 15.367719650269 2.230000495911 189 189 189
24.537397384644 15.707996368408 2.078000068665 84 84 84
24.552896499634 15.706014633179 2.154000282288 207 207 207
24.513975143433 15.647980690002 2.216000556946 205 205 205
24.242219924927 15.493691444397 2.230999946594 162 162 162
24.265642166138 15.553706169128 2.307999610901 158 158 158
24.265642166138 15.553706169128 2.383000373840 152 152 152
24.498825073242 15.775934219360 2.067000389099 36 36 36
24.537748336792 15.833968162537 2.148999214172 207 207 207
24.498825073242 15.775934219360 2.210999488831 213 213 213
24.227069854736 15.621644973755 2.227000236511 166 166 166
24.522598266602 15.961921691895 2.145998954773 208 208 208
24.491600036621 15.965883255005 2.210000038147 210 210 210
24.235343933105 15.809613227844 2.226000785828 149 149 149
24.522949218750 16.087894439697 2.141999244690 208 208 208
24.491950988770 16.091856002808 2.209000587463 210 210 210
24.251192092896 15.933604240417 2.226000785828 129 129 129
24.507799148560 16.215847015381 2.140999794006 208 208 208
24.492301940918 16.217826843262 2.206999778748 211 211 211
24.251543045044 16.059577941895 2.227999687195 134 134 134
24.516075134277 16.403814315796 2.137999534607 208 208 208
24.492650985718 16.343799591064 2.204998970032 205 205 205
24.275316238403 16.245563507080 2.228999137878 112 112 112
24.500925064087 16.531768798828 2.133999824524 209 209 209
24.500925064087 16.531768798828 2.206000328064 201 201 201
24.260166168213 16.373516082764 2.228999137878 96 96 96
24.501276016235 16.657741546631 2.133000373840 206 206 206
24.485776901245 16.659721374512 2.203000068665 203 203 203
24.260519027710 16.499488830566 2.226000785828 81 81 81
24.486125946045 16.785694122314 2.130000114441 194 194 194
24.486125946045 16.785694122314 2.200999259949 200 200 200
24.268793106079 16.687458038330 2.224999427795 55 55 55
24.486476898193 16.911666870117 2.126000404358 191 191 191
24.470977783203 16.913646697998 2.197999000549 204 204 204
24.284641265869 16.811447143555 2.227000236511 89 89 89
24.471326828003 17.039619445801 2.123000144958 197 197 197
24.479251861572 17.101613998413 2.195000648499 204 204 204
24.269493103027 16.939401626587 2.221999168396 24 24 24
24.464103698730 17.229568481445 2.119999885559 201 201 201
24.479602813721 17.227588653564 2.192999839783 205 205 205
24.464452743530 17.355541229248 2.116999626160 202 202 202
24.448953628540 17.357521057129 2.186999320984 205 205 205
24.449304580688 17.483493804932 2.112000465393 208 208 208
24.449304580688 17.483493804932 2.185999870300 204 204 204
24.434154510498 17.611446380615 2.109999656677 201 201 201
24.434154510498 17.611446380615 2.181000709534 200 200 200
24.434505462646 17.737419128418 2.106999397278 203 203 203
24.434505462646 17.737419128418 2.178999900818 207 207 207
24.427282333374 17.927368164063 2.105999946594 203 203 203
24.427282333374 17.927368164063 2.176999092102 202 202 202
24.427631378174 18.053340911865 2.105000495911 205 205 205
24.412132263184 18.055322647095 2.175000190735 202 202 202
24.412481307983 18.181293487549 2.101000785828 203 203 203
24.412481307983 18.181293487549 2.174000740051 205 205 205
24.397333145142 18.309247970581 2.096999168396 199 199 199
24.397333145142 18.309247970581 2.169999122620 201 201 201
24.382183074951 18.437200546265 2.092999458313 205 205 205
24.382183074951 18.437200546265 2.165999412537 209 209 209
24.382534027100 18.563173294067 2.092000007629 201 201 201
24.382534027100 18.563173294067 2.164999961853 208 208 208
24.390810012817 18.751140594482 2.088999748230 199 199 199
24.375310897827 18.753122329712 2.160000801086 208 208 208
24.375659942627 18.879095077515 2.084000587463 200 200 200
24.375659942627 18.879095077515 2.160000801086 208 208 208
24.376008987427 19.005065917969 2.085000038147 197 197 197
24.360509872437 19.007047653198 2.157999992371 205 205 205
24.345361709595 19.135002136230 2.077000617981 195 195 195
24.345361709595 19.135002136230 2.148999214172 212 212 212
24.330213546753 19.262954711914 2.072999000549 191 191 191
24.330213546753 19.262954711914 2.148999214172 206 206 206
24.330562591553 19.388927459717 2.072999000549 188 188 188
24.330562591553 19.388927459717 2.148999214172 207 207 207
24.338838577271 19.576894760132 2.072999000549 193 193 193
24.338838577271 19.576894760132 2.147000312805 206 206 206
24.323688507080 19.704849243164 2.071999549866 198 198 198
24.323688507080 19.704849243164 2.144999504089 206 206 206
24.324037551880 19.830821990967 2.070000648499 197 197 197
24.324037551880 19.830821990967 2.143000602722 205 205 205
24.308889389038 19.958774566650 2.067999839783 187 187 187
24.308889389038 19.958774566650 2.141999244690 192 192 192
23.918592453003 10.620393753052 2.204998970032 106 106 106
23.918592453003 10.620393753052 2.123000144958 108 108 108
23.903093338013 10.622375488281 2.039000511169 127 127 127
23.988510131836 10.674467086792 2.220000267029 138 138 138
24.019508361816 10.670503616333 2.147999763489 155 155 155
24.019508361816 10.670503616333 2.070000648499 147 147 147
23.988510131836 10.674467086792 1.984000205994 58 58 58
23.996784210205 10.862432479858 2.220000267029 138 138 138
24.019859313965 10.796476364136 2.148999214172 153 153 153
24.019859313965 10.796476364136 2.068999290466 155 155 155
23.981285095215 10.864414215088 1.977999687195 25 25 25
24.028133392334 10.984445571899 2.147999763489 151 151 151
24.028133392334 10.984445571899 2.068999290466 155 155 155
24.028482437134 11.110416412354 2.223000526428 15 15 15
24.028482437134 11.110416412354 2.144999504089 150 150 150
24.012983322144 11.112398147583 2.065999031067 149 149 149
24.044330596924 11.234407424927 2.226000785828 17 17 17
24.059829711914 11.232427597046 2.151999473572 177 177 177
24.059829711914 11.232427597046 2.074000358582 169 169 169
25.058284759521 10.663742065430 2.197999000549 75 75 75
25.096857070923 10.595802307129 2.147999763489 132 132 132
25.096857070923 10.595802307129 2.081999778748 136 136 136
25.096857070923 10.595802307129 2.018000602722 131 131 131
25.127855300903 10.591838836670 1.960999488831 37 37 37
24.338809967041 11.196765899658 2.217000007629 136 136 136
24.338809967041 11.196765899658 2.141999244690 139 139 139
24.354309082031 11.194786071777 2.070000648499 143 143 143
25.058633804321 10.789714813232 2.193999290466 72 72 72
25.120630264282 10.781789779663 2.148999214172 152 152 152
25.120630264282 10.781789779663 2.084000587463 163 163 163
25.120630264282 10.781789779663 2.019999504089 167 167 167
25.074132919312 10.787733078003 1.935999870300 166 166 166
24.354309082031 11.194786071777 1.611000061035 149 149 149
24.354309082031 11.194786071777 1.536000251770 124 124 124
24.501724243164 11.238950729370 2.251000404358 100 100 100
24.579217910767 11.229045867920 2.199999809265 145 145 145
24.594717025757 11.227064132690 2.130999565125 145 145 145
25.043485641479 10.917667388916 2.190999031067 103 103 103
25.136478424072 10.905780792236 2.148999214172 167 167 167
25.136478424072 10.905780792236 2.086998939514 153 153 153
25.120979309082 10.907760620117 2.015000343323 153 153 153
25.020412445068 10.983625411987 1.914999961853 166 166 166
24.594717025757 11.227064132690 1.694000244141 153 153 153
24.594717025757 11.227064132690 1.618999481201 153 153 153
24.594717025757 11.227064132690 1.543999671936 152 152 152
24.300939559937 11.516649246216 2.275000572205 46 46 46
24.517574310303 11.362941741943 2.251999855042 93 93 93
24.649139404297 11.283117294312 2.217000007629 170 170 170
24.664638519287 11.281135559082 2.148999214172 170 170 170
24.873697280884 11.191404342651 2.137000083923 138 138 138
24.858198165894 11.193384170532 2.067000389099 135 135 135
24.873697280884 11.191404342651 2.001000404358 132 132 132
24.641565322876 11.347092628479 1.856999397278 169 169 169
24.641565322876 11.347092628479 1.784999847412 171 171 171
24.641565322876 11.347092628479 1.711999893188 170 170 170
24.641565322876 11.347092628479 1.635999679565 172 172 172
24.626066207886 11.349073410034 1.559000015259 174 174 174
24.509998321533 11.426918983459 1.430999755859 161 161 161
24.502075195313 11.364922523499 1.354999542236 152 152 152
24.502075195313 11.364922523499 1.276000022888 141 141 141
24.131151199341 11.790387153625 2.234000205994 40 40 40
24.541347503662 11.548929214478 2.258000373840 90 90 90
24.672912597656 11.469102859497 2.217000007629 171 171 171
24.788978576660 11.391259193420 2.178999900818 104 104 104
24.804477691650 11.389278411865 2.117999076843 126 126 126
24.819976806641 11.387296676636 2.051999092102 128 128 128
24.657413482666 11.471083641052 1.932000160217 175 175 175
24.641914367676 11.473064422607 1.855999946594 173 173 173
24.641914367676 11.473064422607 1.781999588013 180 180 180
24.641914367676 11.473064422607 1.708000183105 181 181 181
24.626415252686 11.475046157837 1.630000114441 152 152 152
24.641914367676 11.473064422607 1.559000015259 128 128 128
24.417356491089 11.564777374268 1.399000167847 184 184 184
24.146999359131 11.914378166199 2.237000465393 49 49 49
24.162498474121 11.912397384644 2.164000511169 144 144 144
24.657762527466 11.597055435181 2.214999198914 169 169 169
24.773830413818 11.519212722778 2.178999900818 142 142 142
24.773830413818 11.519212722778 2.109000205994 143 143 143
24.789329528809 11.517230987549 2.040999412537 144 144 144
24.642263412476 11.599037170410 1.928999900818 171 171 171
24.642263412476 11.599037170410 1.855999946594 172 172 172
24.642263412476 11.599037170410 1.781000137329 170 170 170
24.642263412476 11.599037170410 1.708999633789 171 171 171
24.642263412476 11.599037170410 1.633999824524 173 173 173
24.626764297485 11.601017951965 1.557999610901 171 171 171
24.116352081299 12.044312477112 2.230999946594 68 68 68
24.147350311279 12.040350914001 2.161000251770 204 204 204
24.131851196289 12.042331695557 2.081000328064 210 210 210
24.774179458618 11.645184516907 2.178999900818 148 148 148
24.789678573608 11.643203735352 2.110999107361 131 131 131
24.774179458618 11.645184516907 2.039000511169 131 131 131
24.132200241089 12.168303489685 2.234999656677 85 85 85
24.147699356079 12.166322708130 2.161000251770 213 213 213
24.147699356079 12.166322708130 2.084000587463 198 198 198
24.766956329346 11.835134506226 2.175999641418 139 139 139
24.782453536987 11.833152770996 2.108000755310 131 131 131
24.766956329346 11.835134506226 2.036999702454 123 123 123
24.132551193237 12.294276237488 2.235999107361 92 92 92
24.132551193237 12.294276237488 2.157999992371 219 219 219
24.148048400879 12.292294502258 2.082999229431 210 210 210
24.782806396484 11.959125518799 2.176999092102 134 134 134
24.767307281494 11.961106300354 2.105000495911 135 135 135
24.767307281494 11.961106300354 2.036000251770 123 123 123
24.140825271606 12.482244491577 2.233000755310 149 149 149
24.140825271606 12.482244491577 2.157000541687 212 212 212
24.140825271606 12.482244491577 2.081999778748 200 200 200
24.767656326294 12.087078094482 2.171999931335 209 209 209
24.752157211304 12.089059829712 2.102000236511 212 212 212
24.752157211304 12.089059829712 2.030999183655 100 100 100
24.125677108765 12.610198020935 2.230999946594 172 172 172
24.141176223755 12.608217239380 2.157000541687 213 213 213
24.141176223755 12.608217239380 2.078000068665 190 190 190
24.752506256104 12.215031623840 2.167000770569 210 210 210
24.737007141113 12.217012405396 2.095999717712 209 209 209
24.126026153564 12.736169815063 2.227999687195 182 182 182
24.126026153564 12.736169815063 2.151999473572 210 210 210
24.141525268555 12.734189033508 2.077000617981 176 176 176
24.745281219482 12.404981613159 2.162999153137 210 210 210
24.745281219482 12.404981613159 2.092999458313 212 212 212
24.126377105713 12.862142562866 2.226000785828 193 193 193
24.141876220703 12.860160827637 2.150000572205 209 209 209
24.141876220703 12.860160827637 2.074000358582 145 145 145
24.745632171631 12.530953407288 2.157999992371 208 208 208
24.745632171631 12.530953407288 2.088999748230 211 211 211
24.150150299072 13.048128128052 2.223999977112 194 194 194
24.150150299072 13.048128128052 2.148999214172 190 190 190
24.629915237427 12.734768867493 2.193999290466 148 148 148
24.730484008789 12.658906936646 2.151999473572 214 214 214
24.730484008789 12.658906936646 2.082999229431 209 209 209
24.150499343872 13.174101829529 2.220999717712 196 196 196
24.150499343872 13.174101829529 2.144000053406 162 162 162
24.707759857178 12.850835800171 2.210999488831 147 147 147
24.723258972168 12.848854064941 2.147000312805 211 211 211
24.723258972168 12.848854064941 2.077000617981 212 212 212
24.150848388672 13.300073623657 2.220000267029 194 194 194
24.150848388672 13.300073623657 2.144000053406 212 212 212
24.708110809326 12.976807594299 2.210000038147 176 176 176
24.723609924316 12.974826812744 2.144000053406 213 213 213
24.723609924316 12.974826812744 2.074999809265 205 205 205
24.151199340820 13.426046371460 2.218998908997 194 194 194
24.135702133179 13.428027153015 2.140999794006 215 215 215
24.708459854126 13.102781295776 2.207999229431 194 194 194
24.708459854126 13.102781295776 2.140999794006 211 211 211
24.708459854126 13.102781295776 2.071000099182 196 196 196
24.159475326538 13.614012718201 2.218998908997 202 202 202
24.143976211548 13.615993499756 2.140000343323 217 217 217
24.701234817505 13.292729377747 2.206000328064 200 200 200
24.701234817505 13.292729377747 2.136000633240 208 208 208
24.701234817505 13.292729377747 2.065999031067 187 187 187
24.159824371338 13.739984512329 2.220000267029 209 209 209
24.159824371338 13.739984512329 2.141999244690 213 213 213
24.686086654663 13.420682907104 2.203000068665 206 206 206
24.686086654663 13.420682907104 2.133999824524 211 211 211
24.701583862305 13.418701171875 2.064000129700 152 152 152
24.160175323486 13.865957260132 2.220000267029 209 209 209
24.160175323486 13.865957260132 2.141999244690 211 211 211
24.686437606812 13.546654701233 2.200999259949 212 212 212
24.686437606812 13.546654701233 2.130000114441 211 211 211
24.686437606812 13.546654701233 2.061999320984 107 107 107
24.160524368286 13.991930961609 2.220999717712 202 202 202
24.160524368286 13.991930961609 2.144000053406 213 213 213
24.679212570190 13.736604690552 2.199000358582 212 212 212
24.679212570190 13.736604690552 2.130000114441 207 207 207
24.679212570190 13.736604690552 2.057000160217 80 80 80
24.176372528076 14.115921974182 2.221999168396 211 211 211
24.176372528076 14.115921974182 2.145998954773 176 176 176
24.664062500000 13.864557266235 2.195000648499 209 209 209
24.664062500000 13.864557266235 2.123999595642 212 212 212
24.184646606445 14.303888320923 2.220000267029 202 202 202
24.184646606445 14.303888320923 2.144000053406 175 175 175
24.664413452148 13.990530014038 2.192000389099 207 207 207
24.648914337158 13.992510795593 2.119999885559 210 210 210
24.184997558594 14.429861068726 2.217999458313 203 203 203
24.184997558594 14.429861068726 2.141999244690 215 215 215
24.657188415527 14.180479049683 2.185000419617 201 201 201
24.641691207886 14.182460784912 2.113999366760 205 205 205
24.185346603394 14.555833816528 2.217999458313 210 210 210
24.185346603394 14.555833816528 2.140999794006 214 214 214
24.642040252686 14.308432579041 2.179999351501 212 212 212
24.642040252686 14.308432579041 2.109000205994 212 212 212
24.185697555542 14.681805610657 2.213999748230 200 200 200
24.216695785522 14.677843093872 2.143000602722 213 213 213
24.626892089844 14.436386108398 2.174000740051 212 212 212
24.626892089844 14.436386108398 2.102999687195 210 210 210
24.193971633911 14.869773864746 2.211998939514 205 205 205
24.224969863892 14.865811347961 2.140999794006 210 210 210
24.619667053223 14.626335144043 2.168000221252 212 212 212
24.619667053223 14.626335144043 2.098999977112 208 208 208
24.209819793701 14.993764877319 2.211998939514 200 200 200
24.604516983032 14.754287719727 2.164000511169 212 212 212
24.620016098022 14.752306938171 2.095000267029 196 196 196
24.225667953491 15.117755889893 2.216000556946 190 190 190
24.473302841187 14.960086822510 2.202000617981 221 221 221
24.589368820190 14.882241249084 2.160000801086 211 211 211
24.604867935181 14.880260467529 2.092000007629 187 187 187
24.226020812988 15.243728637695 2.214999198914 198 198 198
24.582143783569 15.072191238403 2.224999427795 197 197 197
24.597642898560 15.070209503174 2.157999992371 209 209 209
24.605218887329 15.006233215332 2.088999748230 161 161 161
24.241868972778 15.367719650269 2.217000007629 208 208 208
24.566995620728 15.200143814087 2.223000526428 200 200 200
24.582494735718 15.198163032532 2.154999732971 211 211 211
24.582494735718 15.198163032532 2.084000587463 138 138 138
24.257719039917 15.491710662842 2.369000434875 150 150 150
24.257719039917 15.491710662842 2.293999671936 160 160 160
24.242219924927 15.493691444397 2.217999458313 189 189 189
24.567344665527 15.326116561890 2.220999717712 200 200 200
24.582843780518 15.324134826660 2.151000022888 209 209 209
24.582843780518 15.324134826660 2.081000328064 80 80 80
24.250494003296 15.681659698486 2.214999198914 204 204 204
24.567695617676 15.452088356018 2.220000267029 200 200 200
24.567695617676 15.452088356018 2.147999763489 211 211 211
24.250843048096 15.807632446289 2.214999198914 208 208 208
24.544973373413 15.644018173218 2.210999488831 209 209 209
24.529474258423 15.645999908447 2.137999534607 210 210 210
24.251192092896 15.933604240417 2.213999748230 208 208 208
24.529823303223 15.771972656250 2.206000328064 210 210 210
24.529823303223 15.771972656250 2.133999824524 211 211 211
24.251543045044 16.059577941895 2.210999488831 211 211 211
24.522598266602 15.961921691895 2.197999000549 212 212 212
24.522598266602 15.961921691895 2.126999855042 211 211 211
24.275316238403 16.245563507080 2.210000038147 211 211 211
24.507450103760 16.089874267578 2.193999290466 208 208 208
24.507450103760 16.089874267578 2.122000694275 210 210 210
24.275665283203 16.371536254883 2.206999778748 205 205 205
24.492301940918 16.217826843262 2.186999320984 212 212 212
24.492301940918 16.217826843262 2.113999366760 213 213 213
24.276016235352 16.497509002686 2.206000328064 213 213 213
24.500576019287 16.405796051025 2.183999061584 211 211 211
24.500576019287 16.405796051025 2.112000465393 209 209 209
24.276367187500 16.623481750488 2.203000068665 211 211 211
24.485425949097 16.533748626709 2.178000450134 212 212 212
24.485425949097 16.533748626709 2.106999397278 205 205 205
24.284641265869 16.811447143555 2.203000068665 208 208 208
24.485776901245 16.659721374512 2.176999092102 210 210 210
24.470277786255 16.661703109741 2.102000236511 207 207 207
24.300491333008 16.935440063477 2.203999519348 204 204 204
24.470626831055 16.787673950195 2.174000740051 184 184 184
24.470626831055 16.787673950195 2.101000785828 201 201 201
24.285341262817 17.063392639160 2.203000068665 197 197 197
24.463401794434 16.977622985840 2.171999931335 198 198 198
24.478900909424 16.975643157959 2.099999427795 197 197 197
24.285690307617 17.189365386963 2.203000068665 197 197 197
24.463754653931 17.103595733643 2.171999931335 194 194 194
24.463754653931 17.103595733643 2.098000526428 194 194 194
24.301540374756 17.313356399536 2.206000328064 189 189 189
24.448604583740 17.231550216675 2.167000770569 196 196 196
24.464103698730 17.229568481445 2.095999717712 185 185 185
24.301889419556 17.439329147339 2.204998970032 181 181 181
24.441379547119 17.421497344971 2.164000511169 196 196 196
24.441379547119 17.421497344971 2.089999198914 182 182 182
24.310163497925 17.627296447754 2.203000068665 180 180 180
24.441728591919 17.547470092773 2.161000251770 204 204 204
24.426229476929 17.549451828003 2.085999488831 165 165 165
24.310512542725 17.753269195557 2.199999809265 176 176 176
24.426580429077 17.675422668457 2.154999732971 189 189 189
24.411083221436 17.677406311035 2.079998970032 134 134 134
24.310863494873 17.879240036011 2.199999809265 185 185 185
24.411432266235 17.803377151489 2.151000022888 184 184 184
