20.847557067871 10.614208221436 4.518001556396 72 72 72
20.847557067871 10.614208221436 4.553001403809 85 85 85
20.847557067871 10.614208221436 4.588001251221 97 97 97
20.847557067871 10.614208221436 4.620998382568 94 94 94
20.847557067871 10.614208221436 4.657001495361 89 89 89
21.766038894653 11.288364410400 4.493000030518 83 83 83
21.700637817383 11.263752937317 4.513000488281 163 163 163
21.700637817383 11.263752937317 4.542999267578 164 164 164
21.700637817383 11.263752937317 4.569999694824 161 161 161
21.700637817383 11.263752937317 4.602001190186 169 169 169
21.700637817383 11.263752937317 4.631999969482 171 171 171
21.733339309692 11.276059150696 4.665000915527 162 162 162
20.845592498779 10.897182464600 4.456001281738 117 117 117
20.876674652100 10.893947601318 4.497001647949 152 152 152
20.878292083740 10.909488677979 4.535999298096 156 156 156
20.910991668701 10.921793937683 4.573001861572 141 141 141
20.878292083740 10.909488677979 4.604000091553 160 160 160
20.910991668701 10.921793937683 4.642002105713 159 159 159
20.876674652100 10.893947601318 4.667999267578 150 150 150
20.811275482178 10.869336128235 4.694000244141 122 122 122
21.451000213623 11.431123733521 3.966999053955 168 168 168
21.516399383545 11.455734252930 4.031002044678 177 177 177
21.531940460205 11.454116821289 4.064998626709 169 169 169
21.531940460205 11.454116821289 4.102001190186 159 159 159
21.531940460205 11.454116821289 4.131000518799 180 180 180
21.531940460205 11.454116821289 4.165000915527 188 188 188
21.531940460205 11.454116821289 4.199001312256 186 186 186
21.531940460205 11.454116821289 4.229999542236 183 183 183
21.516399383545 11.455734252930 4.257999420166 181 181 181
21.516399383545 11.455734252930 4.291999816895 201 201 201
21.531940460205 11.454116821289 4.326000213623 188 188 188
21.531940460205 11.454116821289 4.359001159668 182 182 182
21.531940460205 11.454116821289 4.392002105713 180 180 180
21.549098968506 11.468040466309 4.425998687744 163 163 163
21.581798553467 11.480346679688 4.470001220703 161 161 161
21.650432586670 11.536039352417 4.526000976563 150 150 150
21.650432586670 11.536039352417 4.556999206543 152 152 152
21.650432586670 11.536039352417 4.585998535156 157 157 157
21.650432586670 11.536039352417 4.615001678467 152 152 152
21.650432586670 11.536039352417 4.645000457764 154 154 154
21.650432586670 11.536039352417 4.674999237061 152 152 152
21.549098968506 11.468040466309 4.675998687744 186 186 186
21.531940460205 11.454116821289 4.702999114990 186 186 186
21.500858306885 11.457352638245 4.728000640869 163 163 163
21.370058059692 11.408129692078 4.726001739502 142 142 142
21.236024856567 11.327824592590 4.729000091553 144 144 144
21.072525024414 11.266295433044 4.722999572754 78 78 78
21.462959289551 11.696937561035 4.038002014160 147 147 147
21.430259704590 11.684631347656 4.069999694824 147 147 147
21.430259704590 11.684631347656 4.102001190186 148 148 148
21.430259704590 11.684631347656 4.131000518799 147 147 147
21.430259704590 11.684631347656 4.161998748779 145 145 145
21.430259704590 11.684631347656 4.198001861572 146 146 146
21.430259704590 11.684631347656 4.229000091553 146 146 146
21.430259704590 11.684631347656 4.262001037598 148 148 148
21.430259704590 11.684631347656 4.292999267578 147 147 147
21.399177551270 11.687867164612 4.326000213623 147 147 147
21.399177551270 11.687867164612 4.358001708984 147 147 147
21.399177551270 11.687867164612 4.389999389648 147 147 147
21.498893737793 11.740324974060 4.452999114990 149 149 149
21.629692077637 11.789547920227 4.525001525879 145 145 145
21.629692077637 11.789547920227 4.556999206543 154 154 154
21.629692077637 11.789547920227 4.587001800537 157 157 157
21.629692077637 11.789547920227 4.618000030518 158 158 158
21.629692077637 11.789547920227 4.647998809814 160 160 160
21.628074645996 11.774006843567 4.674999237061 140 140 140
21.364858627319 11.660019874573 4.638999938965 143 143 143
21.364858627319 11.660019874573 4.670001983643 142 142 142
21.364858627319 11.660019874573 4.699001312256 148 148 148
21.299459457397 11.635408401489 4.717998504639 145 145 145
21.234060287476 11.610798835754 4.729000091553 133 133 133
21.624492645264 12.041440963745 4.532001495361 216 216 216
21.624492645264 12.041440963745 4.562000274658 221 221 221
21.624492645264 12.041440963745 4.592998504639 222 222 222
21.624492645264 12.041440963745 4.624000549316 221 221 221
21.624492645264 12.041440963745 4.653999328613 222 222 222
21.560710906982 12.032370567322 4.672000885010 221 221 221
21.015504837036 11.774931907654 4.557998657227 158 158 158
21.015504837036 11.774931907654 4.591999053955 157 157 157
21.001581192017 11.792090415955 4.625999450684 158 158 158
21.001581192017 11.792090415955 4.659999847412 157 157 157
20.967264175415 11.764244079590 4.687999725342 24 24 24
21.591447830200 12.327650070190 4.534999847412 212 212 212
21.591447830200 12.327650070190 4.563999176025 221 221 221
21.591447830200 12.327650070190 4.597000122070 221 221 221
21.591447830200 12.327650070190 4.629001617432 220 220 220
21.591447830200 12.327650070190 4.659000396729 222 222 222
20.997999191284 12.059524536133 4.531002044678 186 186 186
21.030698776245 12.071829795837 4.573001861572 200 200 200
21.030698776245 12.071829795837 4.610000610352 197 197 197
21.030698776245 12.071829795837 4.638999938965 200 200 200
20.997999191284 12.059524536133 4.672000885010 192 192 192
21.587865829468 12.595082283020 4.531002044678 181 181 181
21.587865829468 12.595082283020 4.560001373291 221 221 221
21.587865829468 12.595082283020 4.594001770020 221 221 221
21.587865829468 12.595082283020 4.625000000000 222 222 222
21.587865829468 12.595082283020 4.654998779297 222 222 222
21.522466659546 12.570470809937 4.666999816895 4 4 4
21.028736114502 12.354804039001 4.578998565674 199 199 199
21.028736114502 12.354804039001 4.612998962402 203 203 203
21.028736114502 12.354804039001 4.647998809814 197 197 197
21.028736114502 12.354804039001 4.680000305176 174 174 174
21.536043167114 12.851827621460 4.520000457764 107 107 107
21.553201675415 12.865750312805 4.556999206543 218 218 218
21.553201675415 12.865750312805 4.588001251221 220 220 220
21.553201675415 12.865750312805 4.618000030518 223 223 223
21.553201675415 12.865750312805 4.652000427246 220 220 220
21.536043167114 12.851827621460 4.678001403809 224 224 224
21.026771545410 12.637777328491 4.584999084473 218 218 218
21.026771545410 12.637777328491 4.618999481201 216 216 216
21.026771545410 12.637777328491 4.653999328613 193 193 193
21.025154113770 12.622236251831 4.687000274658 141 141 141
21.516920089722 13.120878219604 4.522998809814 18 18 18
21.516920089722 13.120878219604 4.555999755859 220 220 220
21.516920089722 13.120878219604 4.588001251221 221 221 221
21.516920089722 13.120878219604 4.618999481201 221 221 221
21.516920089722 13.120878219604 4.650001525879 222 222 222
21.484220504761 13.108572959900 4.679000854492 223 223 223
21.054271697998 12.901975631714 4.597000122070 218 218 218
21.054271697998 12.901975631714 4.631000518799 217 217 217
21.054271697998 12.901975631714 4.666000366211 207 207 207
21.480638504028 13.376005172729 4.557998657227 220 220 220
21.480638504028 13.376005172729 4.590000152588 220 220 220
21.480638504028 13.376005172729 4.620998382568 221 221 221
21.480638504028 13.376005172729 4.653999328613 222 222 222
21.480638504028 13.376005172729 4.684001922607 213 213 213
21.069465637207 13.198873519897 4.611999511719 185 185 185
21.069465637207 13.198873519897 4.646999359131 184 184 184
21.052307128906 13.184949874878 4.680999755859 195 195 195
21.463132858276 13.660596847534 4.557998657227 219 219 219
21.463132858276 13.660596847534 4.590999603271 222 222 222
21.463132858276 13.660596847534 4.624000549316 221 221 221
21.463132858276 13.660596847534 4.656002044678 222 222 222
21.461515426636 13.645055770874 4.682998657227 221 221 221
21.083042144775 13.480229377747 4.626998901367 216 216 216
21.083042144775 13.480229377747 4.660999298096 193 193 193
21.083042144775 13.480229377747 4.694999694824 144 144 144
21.442392349243 13.914107322693 4.559001922607 215 215 215
21.444009780884 13.929648399353 4.592998504639 221 221 221
21.442392349243 13.914107322693 4.625000000000 222 222 222
21.442392349243 13.914107322693 4.658000946045 223 223 223
21.411310195923 13.917342185974 4.684001922607 221 221 221
21.081079483032 13.763202667236 4.639999389648 216 216 216
21.112161636353 13.759967803955 4.675998687744 199 199 199
21.423269271851 14.183156967163 4.559001922607 203 203 203
21.423269271851 14.183156967163 4.592998504639 220 220 220
21.406110763550 14.169234275818 4.625000000000 223 223 223
21.423269271851 14.183156967163 4.659999847412 221 221 221
21.390569686890 14.170851707458 4.688999176025 219 219 219
21.110197067261 14.042941093445 4.656002044678 212 212 212
21.110197067261 14.042941093445 4.688999176025 191 191 191
21.373065948486 14.455443382263 4.562000274658 207 207 207
21.373065948486 14.455443382263 4.596000671387 221 221 221
21.373065948486 14.455443382263 4.629001617432 220 220 220
21.373065948486 14.455443382263 4.663002014160 222 222 222
21.307666778564 14.430831909180 4.682998657227 220 220 220
21.140932083130 14.338220596313 4.673000335693 202 202 202
21.139314651489 14.322680473328 4.706001281738 32 32 32
21.336784362793 14.710570335388 4.563999176025 201 201 201
21.336784362793 14.710570335388 4.597999572754 221 221 221
21.367866516113 14.707334518433 4.632999420166 222 222 222
21.336784362793 14.710570335388 4.666999816895 222 222 222
21.302467346191 14.682723045349 4.689998626709 212 212 212
21.138969421387 14.621195793152 4.688999176025 205 205 205
21.333202362061 14.978003501892 4.564998626709 191 191 191
21.333202362061 14.978003501892 4.599998474121 220 220 220
21.316043853760 14.964080810547 4.632999420166 222 222 222
21.333202362061 14.978003501892 4.667999267578 219 219 219
21.266185760498 14.937850952148 4.687999725342 217 217 217
21.150928497314 14.887010574341 4.696998596191 186 186 186
21.298540115356 15.248671531677 4.566001892090 194 194 194
21.298540115356 15.248671531677 4.602001190186 212 212 212
21.298540115356 15.248671531677 4.636001586914 221 221 221
21.298540115356 15.248671531677 4.672000885010 214 214 214
21.296920776367 15.233130455017 4.701999664307 192 192 192
21.166122436523 15.183907508850 4.708999633789 95 95 95
21.296575546265 15.531645774841 4.576000213623 214 214 214
21.281034469604 15.533263206482 4.609001159668 220 220 220
21.281034469604 15.533263206482 4.645000457764 220 220 220
21.281034469604 15.533263206482 4.680000305176 219 219 219
21.198474884033 15.494728088379 4.699001312256 175 175 175
21.227594375610 15.774466514587 4.575000762939 196 196 196
21.260293960571 15.786772727966 4.613998413086 192 192 192
21.260293960571 15.786772727966 4.650001525879 184 184 184
21.227594375610 15.774466514587 4.682998657227 215 215 215
21.194894790649 15.762161254883 4.712001800537 67 67 67
21.255094528198 16.038665771484 4.588001251221 201 201 201
21.255094528198 16.038665771484 4.625000000000 182 182 182
21.255094528198 16.038665771484 4.659999847412 202 202 202
21.224012374878 16.041900634766 4.693000793457 212 212 212
21.237588882446 16.323257446289 4.588001251221 202 202 202
21.237588882446 16.323257446289 4.626998901367 208 208 208
21.237588882446 16.323257446289 4.660999298096 210 210 210
21.237588882446 16.323257446289 4.694999694824 212 212 212
21.218465805054 16.592308044434 4.592998504639 209 209 209
21.220083236694 16.607849121094 4.630001068115 169 169 169
21.220083236694 16.607849121094 4.666999816895 212 212 212
21.218465805054 16.592308044434 4.700000762939 197 197 197
21.199342727661 16.861356735229 4.568000793457 76 76 76
21.199342727661 16.861356735229 4.605998992920 213 213 213
21.216501235962 16.875280380249 4.645999908447 183 183 183
21.199342727661 16.861356735229 4.678001403809 216 216 216
21.199342727661 16.861356735229 4.709999084473 128 128 128
21.181838989258 17.145950317383 4.583000183105 175 175 175
21.214538574219 17.158256530762 4.623001098633 191 191 191
21.214538574219 17.158256530762 4.659999847412 162 162 162
21.214538574219 17.158256530762 4.695999145508 205 205 205
21.179874420166 17.428924560547 4.594001770020 197 197 197
21.195415496826 17.427305221558 4.631999969482 215 215 215
21.195415496826 17.427305221558 4.668998718262 214 214 214
21.179874420166 17.428924560547 4.703998565674 189 189 189
21.176292419434 17.696355819702 4.595001220703 197 197 197
21.177909851074 17.711896896362 4.633998870850 216 216 216
21.176292419434 17.696355819702 4.670001983643 218 218 218
21.176292419434 17.696355819702 4.703998565674 183 183 183
20.814855575562 10.601902008057 4.493999481201 41 41 41
20.783773422241 10.605137825012 4.522998809814 63 63 63
20.783773422241 10.605137825012 4.554000854492 76 76 76
20.814855575562 10.601902008057 4.587001800537 81 81 81
20.814855575562 10.601902008057 4.618999481201 84 84 84
20.785392761230 10.620678901672 4.645999908447 102 102 102
20.783773422241 10.605137825012 4.673999786377 86 86 86
21.933464050293 10.783946037292 4.477001190186 169 169 169
21.933464050293 10.783946037292 4.500999450684 173 173 173
21.917922973633 10.785563468933 4.525001525879 172 172 172
21.917922973633 10.785563468933 4.549999237061 168 168 168
21.933464050293 10.783946037292 4.576000213623 173 173 173
21.933464050293 10.783946037292 4.599998474121 170 170 170
21.917922973633 10.785563468933 4.623001098633 174 174 174
21.917922973633 10.785563468933 4.646999359131 173 173 173
21.933464050293 10.783946037292 4.673000335693 173 173 173
21.917922973633 10.785563468933 4.694999694824 161 161 161
21.840217590332 10.793651580811 4.698001861572 135 135 135
20.876674652100 10.893947601318 4.492000579834 157 157 157
20.876674652100 10.893947601318 4.526000976563 169 169 169
20.876674652100 10.893947601318 4.556999206543 165 165 165
20.876674652100 10.893947601318 4.589000701904 163 163 163
20.876674652100 10.893947601318 4.618999481201 172 172 172
20.876674652100 10.893947601318 4.647998809814 175 175 175
20.845592498779 10.897182464600 4.668998718262 166 166 166
20.814510345459 10.900418281555 4.695999145508 153 153 153
21.745008468628 11.086330413818 4.506000518799 161 161 161
21.746625900269 11.101871490479 4.533000946045 166 166 166
21.745008468628 11.086330413818 4.556999206543 170 170 170
21.745008468628 11.086330413818 4.583000183105 169 169 169
21.746625900269 11.101871490479 4.611000061035 171 171 171
21.746625900269 11.101871490479 4.635002136230 172 172 172
21.745008468628 11.086330413818 4.663002014160 161 161 161
20.905792236328 11.173685073853 4.513999938965 155 155 155
20.891868591309 11.190843582153 4.541999816895 160 160 160
20.891868591309 11.190843582153 4.573001861572 162 162 162
20.905792236328 11.173685073853 4.604000091553 160 160 160
20.891868591309 11.190843582153 4.633998870850 161 161 161
20.905792236328 11.173685073853 4.665000915527 149 149 149
21.402757644653 11.420434951782 3.958999633789 176 176 176
21.496004104614 11.410729408264 4.022998809814 193 193 193
21.527086257935 11.407493591309 4.057998657227 191 191 191
21.527086257935 11.407493591309 4.084999084473 187 187 187
21.527086257935 11.407493591309 4.115001678467 178 178 178
21.527086257935 11.407493591309 4.142002105713 186 186 186
21.527086257935 11.407493591309 4.173000335693 187 187 187
21.527086257935 11.407493591309 4.196998596191 190 190 190
21.527086257935 11.407493591309 4.227001190186 188 188 188
21.527086257935 11.407493591309 4.257999420166 186 186 186
21.527086257935 11.407493591309 4.285999298096 187 187 187
21.527086257935 11.407493591309 4.311000823975 190 190 190
21.527086257935 11.407493591309 4.340000152588 189 189 189
21.527086257935 11.407493591309 4.367000579834 192 192 192
21.513164520264 11.424652099609 4.393001556396 196 196 196
21.527086257935 11.407493591309 4.423000335693 195 195 195
21.527086257935 11.407493591309 4.450000762939 194 194 194
21.653034210205 11.410093307495 4.514999389648 152 152 152
21.668575286865 11.408475875854 4.543998718262 145 145 145
21.653034210205 11.410093307495 4.568000793457 145 145 145
21.653034210205 11.410093307495 4.590999603271 156 156 156
21.651414871216 11.394552230835 4.619998931885 156 156 156
21.668575286865 11.408475875854 4.649002075195 153 153 153
21.651414871216 11.394552230835 4.671001434326 151 151 151
21.527086257935 11.407493591309 4.666999816895 195 195 195
21.527086257935 11.407493591309 4.693000793457 193 193 193
21.513164520264 11.424652099609 4.720001220703 186 186 186
21.466541290283 11.429505348206 4.733001708984 141 141 141
21.311130523682 11.445682525635 4.730998992920 151 151 151
21.185182571411 11.443082809448 4.731998443604 131 131 131
21.400794982910 11.703408241272 4.013999938965 207 207 207
21.340248107910 11.725419998169 4.021999359131 212 212 212
21.619987487793 11.696301460266 4.511001586914 130 130 130
21.651069641113 11.693066596985 4.541000366211 160 160 160
21.619987487793 11.696301460266 4.564998626709 167 167 167
21.651069641113 11.693066596985 4.594001770020 163 163 163
21.651069641113 11.693066596985 4.618999481201 167 167 167
21.651069641113 11.693066596985 4.647998809814 163 163 163
21.651069641113 11.693066596985 4.672000885010 161 161 161
20.967264175415 11.764244079590 4.545001983643 152 152 152
20.998346328735 11.761008262634 4.583999633789 172 172 172
20.998346328735 11.761008262634 4.612998962402 170 170 170
20.998346328735 11.761008262634 4.642002105713 172 172 172
20.998346328735 11.761008262634 4.672000885010 169 169 169
21.618022918701 11.979276657104 4.511001586914 86 86 86
21.618022918701 11.979276657104 4.534000396729 158 158 158
21.618022918701 11.979276657104 4.562000274658 162 162 162
21.618022918701 11.979276657104 4.590000152588 161 161 161
21.618022918701 11.979276657104 4.615001678467 165 165 165
21.618022918701 11.979276657104 4.643001556396 162 162 162
21.618022918701 11.979276657104 4.670001983643 156 156 156
20.966917037964 12.062759399414 4.548000335693 175 175 175
20.996381759644 12.043983459473 4.585998535156 203 203 203
20.996381759644 12.043983459473 4.616001129150 208 208 208
20.996381759644 12.043983459473 4.645999908447 207 207 207
20.996381759644 12.043983459473 4.675998687744 201 201 201
21.617675781250 12.277791023254 4.535999298096 204 204 204
21.586593627930 12.281026840210 4.561000823975 222 222 222
21.586593627930 12.281026840210 4.585998535156 222 222 222
21.586593627930 12.281026840210 4.615001678467 219 219 219
21.586593627930 12.281026840210 4.639999389648 225 225 225
21.586593627930 12.281026840210 4.666999816895 223 223 223
20.996034622192 12.342497825623 4.562000274658 217 217 217
20.996034622192 12.342497825623 4.596000671387 206 206 206
20.996034622192 12.342497825623 4.626998901367 219 219 219
21.028736114502 12.354804039001 4.659000396729 197 197 197
20.996034622192 12.342497825623 4.687000274658 162 162 162
21.555166244507 12.582777023315 4.538002014160 199 199 199
21.555166244507 12.582777023315 4.562000274658 223 223 223
21.555166244507 12.582777023315 4.590999603271 219 219 219
21.570707321167 12.581159591675 4.622001647949 219 219 219
21.555166244507 12.582777023315 4.647998809814 218 218 218
21.555166244507 12.582777023315 4.673000335693 220 220 220
21.011230468750 12.639394760132 4.580001831055 219 219 219
21.011230468750 12.639394760132 4.611000061035 221 221 221
21.011230468750 12.639394760132 4.640998840332 219 219 219
21.011230468750 12.639394760132 4.672000885010 215 215 215
21.554819107056 12.881291389465 4.541999816895 189 189 189
21.554819107056 12.881291389465 4.568000793457 222 222 222
21.523736953735 12.884527206421 4.594001770020 223 223 223
21.554819107056 12.881291389465 4.624000549316 220 220 220
21.522119522095 12.868986129761 4.650001525879 221 221 221
21.554819107056 12.881291389465 4.678001403809 220 220 220
21.057506561279 12.933056831360 4.603000640869 220 220 220
21.026424407959 12.936292648315 4.626998901367 221 221 221
21.026424407959 12.936292648315 4.659999847412 200 200 200
21.026424407959 12.936292648315 4.688999176025 186 186 186
21.506231307983 13.169118881226 4.541000366211 157 157 157
21.506231307983 13.169118881226 4.567001342773 221 221 221
21.506231307983 13.169118881226 4.596000671387 217 217 217
21.506231307983 13.169118881226 4.624000549316 219 219 219
21.492307662964 13.186278343201 4.651000976563 227 227 227
21.506231307983 13.169118881226 4.679000854492 222 222 222
21.088241577148 13.228337287903 4.618000030518 222 222 222
21.057159423828 13.231573104858 4.638999938965 227 227 227
21.057159423828 13.231573104858 4.672000885010 212 212 212
21.026077270508 13.234807968140 4.698001861572 97 97 97
21.459262847900 13.472487449646 4.533000946045 75 75 75
21.459262847900 13.472487449646 4.563999176025 221 221 221
21.459262847900 13.472487449646 4.591999053955 219 219 219
21.459262847900 13.472487449646 4.620998382568 219 219 219
21.459262847900 13.472487449646 4.646999359131 224 224 224
21.459262847900 13.472487449646 4.675998687744 218 218 218
21.148443222046 13.504840850830 4.632999420166 224 224 224
21.055196762085 13.514546394348 4.650001525879 222 222 222
21.055196762085 13.514546394348 4.680999755859 214 214 214
21.443374633789 13.772619247437 4.561000823975 212 212 212
21.443374633789 13.772619247437 4.590000152588 218 218 218
21.443374633789 13.772619247437 4.618999481201 218 218 218
21.443374633789 13.772619247437 4.646999359131 221 221 221
21.443374633789 13.772619247437 4.675998687744 220 220 220
21.270807266235 13.774872779846 4.672000885010 221 221 221
21.084314346313 13.794284820557 4.659999847412 217 217 217
21.084314346313 13.794284820557 4.689998626709 213 213 213
21.410327911377 14.058828353882 4.561000823975 206 206 206
21.410327911377 14.058828353882 4.590999603271 218 218 218
21.394786834717 14.060446739197 4.618000030518 220 220 220
21.393169403076 14.044905662537 4.645999908447 223 223 223
21.394786834717 14.060446739197 4.675998687744 223 223 223
21.254919052124 14.075005531311 4.673000335693 221 221 221
21.115049362183 14.089564323425 4.673000335693 204 204 204
21.115049362183 14.089564323425 4.702999114990 149 149 149
21.394441604614 14.358961105347 4.564998626709 200 200 200
21.363361358643 14.362196922302 4.590999603271 220 220 220
21.363361358643 14.362196922302 4.620998382568 222 222 222
21.363361358643 14.362196922302 4.649002075195 224 224 224
21.363361358643 14.362196922302 4.680999755859 222 222 222
21.207950592041 14.378373146057 4.674999237061 214 214 214
21.114704132080 14.388079643250 4.687999725342 216 216 216
21.331932067871 14.663947105408 4.564998626709 190 190 190
21.331932067871 14.663947105408 4.594001770020 218 218 218
21.330314636230 14.648406982422 4.623001098633 218 218 218
21.331932067871 14.663947105408 4.652000427246 222 222 222
21.331932067871 14.663947105408 4.680999755859 221 221 221
21.205986022949 14.661348342896 4.682998657227 218 218 218
21.145439147949 14.683359146118 4.702999114990 194 194 194
21.298885345459 14.950157165527 4.562000274658 163 163 163
21.298885345459 14.950157165527 4.591999053955 221 221 221
21.298885345459 14.950157165527 4.620998382568 221 221 221
21.298885345459 14.950157165527 4.652999877930 218 218 218
21.298885345459 14.950157165527 4.681999206543 221 221 221
21.207256317139 14.975403785706 4.688999176025 214 214 214
21.145092010498 14.981874465942 4.708999633789 153 153 153
21.296920776367 15.233130455017 4.561000823975 137 137 137
21.298540115356 15.248671531677 4.592998504639 219 219 219
21.298540115356 15.248671531677 4.623001098633 217 217 217
21.298540115356 15.248671531677 4.652999877930 218 218 218
21.298540115356 15.248671531677 4.682998657227 221 221 221
21.267457962036 15.251907348633 4.706001281738 188 188 188
21.143129348755 15.264848709106 4.713001251221 42 42 42
21.265493392944 15.534880638123 4.563999176025 139 139 139
21.265493392944 15.534880638123 4.597000122070 218 218 218
21.265493392944 15.534880638123 4.626998901367 217 217 217
21.265493392944 15.534880638123 4.656002044678 215 215 215
21.265493392944 15.534880638123 4.687000274658 217 217 217
21.234411239624 15.538116455078 4.707000732422 181 181 181
21.201364517212 15.824325561523 4.561000823975 52 52 52
21.234064102173 15.836630821228 4.596000671387 216 216 216
21.234064102173 15.836630821228 4.625999450684 210 210 210
21.234064102173 15.836630821228 4.658000946045 212 212 212
21.234064102173 15.836630821228 4.687999725342 214 214 214
21.202981948853 15.839866638184 4.714000701904 114 114 114
21.202636718750 16.138381958008 4.571998596191 150 150 150
21.233718872070 16.135147094727 4.605998992920 215 215 215
21.233718872070 16.135147094727 4.637001037598 172 172 172
21.233718872070 16.135147094727 4.668998718262 205 205 205
21.202636718750 16.138381958008 4.695999145508 214 214 214
21.200672149658 16.421356201172 4.582000732422 182 182 182
21.202289581299 16.436897277832 4.613998413086 219 219 219
21.200672149658 16.421356201172 4.645999908447 214 214 214
21.200672149658 16.421356201172 4.678001403809 218 218 218
21.200672149658 16.421356201172 4.706001281738 187 187 187
21.200325012207 16.719871520996 4.590999603271 197 197 197
21.200325012207 16.719871520996 4.623001098633 195 195 195
21.201942443848 16.735412597656 4.653999328613 176 176 176
21.200325012207 16.719871520996 4.686000823975 216 216 216
21.186401367188 16.737030029297 4.714000701904 149 149 149
21.198360443115 17.002845764160 4.598999023438 208 208 208
21.199979782104 17.018386840820 4.631999969482 199 199 199
21.198360443115 17.002845764160 4.663002014160 204 204 204
21.199979782104 17.018386840820 4.693000793457 215 215 215
21.168897628784 17.021621704102 4.720001220703 82 82 82
21.166933059692 17.304595947266 4.602001190186 213 213 213
21.166933059692 17.304595947266 4.633998870850 218 218 218
21.166933059692 17.304595947266 4.666999816895 217 217 217
21.198015213013 17.301359176636 4.699001312256 211 211 211
21.151044845581 17.604726791382 4.576999664307 67 67 67
21.166585922241 17.603109359741 4.611999511719 217 217 217
21.166585922241 17.603109359741 4.645000457764 217 217 217
21.166585922241 17.603109359741 4.677001953125 217 217 217
21.166585922241 17.603109359741 4.707000732422 190 190 190
21.146827697754 17.715133666992 4.694999694824 30 30 30
21.176292419434 17.696355819702 4.667999267578 201 201 201
21.174674987793 17.680814743042 4.629001617432 203 203 203
21.174674987793 17.680814743042 4.591999053955 200 200 200
21.162368774414 17.713514328003 4.549999237061 18 18 18
21.173402786255 17.366760253906 4.687999725342 151 151 151
21.204484939575 17.363523483276 4.656002044678 201 201 201
21.188943862915 17.365140914917 4.618000030518 203 203 203
21.204484939575 17.363523483276 4.582000732422 197 197 197
21.168897628784 17.021621704102 4.680999755859 176 176 176
21.198360443115 17.002845764160 4.650001525879 189 189 189
21.198360443115 17.002845764160 4.611999511719 183 183 183
21.198360443115 17.002845764160 4.576000213623 191 191 191
21.195472717285 16.673248291016 4.677001953125 185 185 185
21.195472717285 16.673248291016 4.642002105713 192 192 192
21.195472717285 16.673248291016 4.604999542236 183 183 183
21.195472717285 16.673248291016 4.568000793457 191 191 191
21.222047805786 16.324874877930 4.670001983643 198 198 198
21.222047805786 16.324874877930 4.637001037598 178 178 178
21.222047805786 16.324874877930 4.601001739502 183 183 183
21.222047805786 16.324874877930 4.562000274658 174 174 174
21.189695358276 16.014053344727 4.687999725342 110 110 110
21.217540740967 15.979736328125 4.661998748779 204 204 204
21.233081817627 15.978118896484 4.625999450684 170 170 170
21.217540740967 15.979736328125 4.589000701904 186 186 186
21.217540740967 15.979736328125 4.552001953125 147 147 147
21.216270446777 15.665679931641 4.682998657227 162 162 162
21.216270446777 15.665679931641 4.647998809814 202 202 202
21.216270446777 15.665679931641 4.612998962402 203 203 203
21.216270446777 15.665679931641 4.577999114990 201 201 201
21.216270446777 15.665679931641 4.541999816895 116 116 116
21.124988555908 15.392412185669 4.687000274658 52 52 52
21.242845535278 15.317306518555 4.678001403809 172 172 172
21.301774978638 15.279753684998 4.657001495361 201 201 201
21.301774978638 15.279753684998 4.623001098633 199 199 199
21.269075393677 15.267448425293 4.585998535156 195 195 195
21.301774978638 15.279753684998 4.552001953125 192 192 192
21.122098922729 15.062814712524 4.679000854492 164 164 164
21.181028366089 15.025262832642 4.657001495361 206 206 206
21.328350067139 14.931380271912 4.656002044678 202 202 202
21.328350067139 14.931380271912 4.622001647949 203 203 203
21.328350067139 14.931380271912 4.587001800537 202 202 202
21.328350067139 14.931380271912 4.549999237061 194 194 194
21.091363906860 14.767535209656 4.833999633789 27 27 27
21.089746475220 14.751994132996 4.802001953125 41 41 41
21.119209289551 14.733217239380 4.769001007080 54 54 54
21.089746475220 14.751994132996 4.730998992920 69 69 69
21.119209289551 14.733217239380 4.698001861572 77 77 77
21.119209289551 14.733217239380 4.666999816895 195 195 195
21.178138732910 14.695664405823 4.645000457764 209 209 209
21.353307723999 14.567465782166 4.656002044678 199 199 199
21.353307723999 14.567465782166 4.619998931885 204 204 204
21.353307723999 14.567465782166 4.585998535156 203 203 203
21.353307723999 14.567465782166 4.552001953125 202 202 202
21.086856842041 14.422396659851 4.680000305176 115 115 115
21.117938995361 14.419161796570 4.649002075195 186 186 186
21.204713821411 14.347290992737 4.633998870850 213 213 213
21.409345626831 14.200316429138 4.654998779297 204 204 204
21.409345626831 14.200316429138 4.619998931885 203 203 203
21.409345626831 14.200316429138 4.585998535156 204 204 204
21.409345626831 14.200316429138 4.552001953125 202 202 202
21.115049362183 14.089564323425 4.666000366211 187 187 187
21.115049362183 14.089564323425 4.629001617432 210 210 210
21.172361373901 14.036470413208 4.613998413086 214 214 214
21.434305191040 13.836401939392 4.652000427246 206 206 206
21.434305191040 13.836401939392 4.618000030518 204 204 204
21.451463699341 13.850324630737 4.588001251221 201 201 201
21.434305191040 13.836401939392 4.553001403809 203 203 203
21.434305191040 13.836401939392 4.517002105713 107 107 107
21.053232192993 13.797520637512 4.679000854492 39 39 39
21.082696914673 13.778743743896 4.651000976563 188 188 188
21.082696914673 13.778743743896 4.615001678467 210 210 210
21.108924865723 13.728885650635 4.590000152588 213 213 213
21.491962432861 13.484792709351 4.654998779297 204 204 204
21.491962432861 13.484792709351 4.622001647949 203 203 203
21.490345001221 13.469251632690 4.590999603271 203 203 203
21.491962432861 13.484792709351 4.555999755859 204 204 204
21.490345001221 13.469251632690 4.526000976563 167 167 167
21.050342559814 13.467923164368 4.670001983643 160 160 160
21.064266204834 13.450764656067 4.636001586914 191 191 191
21.064266204834 13.450764656067 4.601001739502 209 209 209
21.079807281494 13.449147224426 4.568000793457 209 209 209
21.516920089722 13.120878219604 4.658000946045 204 204 204
21.516920089722 13.120878219604 4.625999450684 205 205 205
21.516920089722 13.120878219604 4.595001220703 206 206 206
21.516920089722 13.120878219604 4.562000274658 200 200 200
21.516920089722 13.120878219604 4.527999877930 201 201 201
21.047454833984 13.138326644897 4.654998779297 199 199 199
21.031913757324 13.139944076538 4.618000030518 135 135 135
21.047454833984 13.138326644897 4.587001800537 154 154 154
21.047454833984 13.138326644897 4.549999237061 174 174 174
21.543495178223 12.772504806519 4.657001495361 207 207 207
21.543495178223 12.772504806519 4.627998352051 207 207 207
21.543495178223 12.772504806519 4.596000671387 205 205 205
21.543495178223 12.772504806519 4.562000274658 203 203 203
21.543495178223 12.772504806519 4.531002044678 207 207 207
21.543495178223 12.772504806519 4.498001098633 70 70 70
20.985635757446 12.846282005310 4.665000915527 106 106 106
21.015100479126 12.827506065369 4.636001586914 185 185 185
21.015100479126 12.827506065369 4.599998474121 207 207 207
21.015100479126 12.827506065369 4.566001892090 210 210 210
21.015100479126 12.827506065369 4.531002044678 203 203 203
21.570072174072 12.424131393433 4.654998779297 195 195 195
21.585613250732 12.422513961792 4.625000000000 206 206 206
21.599534988403 12.405355453491 4.596000671387 207 207 207
21.599534988403 12.405355453491 4.563999176025 208 208 208
21.597917556763 12.389814376831 4.533000946045 209 209 209
21.585613250732 12.422513961792 4.498001098633 147 147 147
21.012212753296 12.497908592224 4.656002044678 180 180 180
21.012212753296 12.497908592224 4.619998931885 188 188 188
21.012212753296 12.497908592224 4.585998535156 204 204 204
21.012212753296 12.497908592224 4.549999237061 203 203 203
21.012212753296 12.497908592224 4.513999938965 197 197 197
21.624492645264 12.041440963745 4.656002044678 172 172 172
21.624492645264 12.041440963745 4.625999450684 193 193 193
21.624492645264 12.041440963745 4.595001220703 191 191 191
21.624492645264 12.041440963745 4.562000274658 186 186 186
21.624492645264 12.041440963745 4.532001495361 183 183 183
21.624492645264 12.041440963745 4.500000000000 163 163 163
20.978240966797 12.171546936035 4.643001556396 198 198 198
21.009323120117 12.168312072754 4.613998413086 182 182 182
21.037170410156 12.133994102478 4.583999633789 203 203 203
21.037170410156 12.133994102478 4.548999786377 200 200 200
20.993782043457 12.169929504395 4.504001617432 185 185 185
21.651069641113 11.693066596985 4.659000396729 109 109 109
21.651069641113 11.693066596985 4.629001617432 136 136 136
21.651069641113 11.693066596985 4.597000122070 138 138 138
21.651069641113 11.693066596985 4.568000793457 141 141 141
21.619987487793 11.696301460266 4.534000396729 137 137 137
21.651069641113 11.693066596985 4.505001068115 139 139 139
21.651069641113 11.693066596985 4.477001190186 80 80 80
20.976970672607 11.857490539551 4.664001464844 53 53 53
21.211065292358 11.691738128662 4.692001342773 148 148 148
21.386234283447 11.563540458679 4.701999664307 141 141 141
21.473011016846 11.491669654846 4.701000213623 156 156 156
21.516399383545 11.455734252930 4.681999206543 179 179 179
21.516399383545 11.455734252930 4.650001525879 182 182 182
21.531940460205 11.454116821289 4.620998382568 172 172 172
21.707109451294 11.325917243958 4.644001007080 128 128 128
21.646562576294 11.347929000854 4.601001739502 141 141 141
21.646562576294 11.347929000854 4.570999145508 128 128 128
21.646562576294 11.347929000854 4.541000366211 126 126 126
21.677644729614 11.344694137573 4.512001037598 137 137 137
21.677644729614 11.344694137573 4.483001708984 139 139 139
21.646562576294 11.347929000854 4.443000793457 151 151 151
21.516399383545 11.455734252930 4.365001678467 174 174 174
21.500858306885 11.457352638245 4.330001831055 176 176 176
21.500858306885 11.457352638245 4.298000335693 177 177 177
21.500858306885 11.457352638245 4.264999389648 179 179 179
21.516399383545 11.455734252930 4.236000061035 173 173 173
21.516399383545 11.455734252930 4.201000213623 175 175 175
21.516399383545 11.455734252930 4.168998718262 178 178 178
21.531940460205 11.454116821289 4.138999938965 176 176 176
21.531940460205 11.454116821289 4.104999542236 166 166 166
21.516399383545 11.455734252930 4.070999145508 153 153 153
21.531940460205 11.454116821289 4.038002014160 167 167 167
21.516399383545 11.455734252930 4.001998901367 174 174 174
21.177095413208 11.365377426147 4.708000183105 135 135 135
21.294952392578 11.290271759033 4.708000183105 150 150 150
21.322799682617 11.255953788757 4.685001373291 179 179 179
21.353881835938 11.252718925476 4.657001495361 177 177 177
21.353881835938 11.252718925476 4.625999450684 177 177 177
21.353881835938 11.252718925476 4.591999053955 179 179 179
21.353881835938 11.252718925476 4.559001922607 179 179 179
21.820459365845 10.905673027039 4.670001983643 147 147 147
21.891693115234 10.835422515869 4.672000885010 135 135 135
21.921157836914 10.816645622253 4.651000976563 158 158 158
21.905616760254 10.818263053894 4.622001647949 157 157 157
21.921157836914 10.816645622253 4.597000122070 156 156 156
21.905616760254 10.818263053894 4.564998626709 156 156 156
21.921157836914 10.816645622253 4.539001464844 156 156 156
21.921157836914 10.816645622253 4.510002136230 158 158 158
21.921157836914 10.816645622253 4.481998443604 158 158 158
21.921157836914 10.816645622253 4.451000213623 157 157 157
21.352264404297 11.237177848816 4.202999114990 179 179 179
21.366188049316 11.220018386841 4.173000335693 180 180 180
21.366188049316 11.220018386841 4.139999389648 182 182 182
21.381729125977 11.218400955200 4.109001159668 180 180 180
21.366188049316 11.220018386841 4.071998596191 178 178 178
21.381729125977 11.218400955200 4.039001464844 174 174 174
21.366188049316 11.220018386841 4.001998901367 182 182 182
20.884416580200 11.270166397095 4.651000976563 68 68 68
20.912263870239 11.235849380493 4.625000000000 160 160 160
20.912263870239 11.235849380493 4.588001251221 162 162 162
20.912263870239 11.235849380493 4.552001953125 164 164 164
20.912263870239 11.235849380493 4.517002105713 161 161 161
20.912263870239 11.235849380493 4.480998992920 147 147 147
20.820980072021 10.962580680847 4.659000396729 143 143 143
20.865985870361 10.942188262939 4.633998870850 140 140 140
20.879909515381 10.925029754639 4.603000640869 153 153 153
20.879909515381 10.925029754639 4.568000793457 138 138 138
20.879909515381 10.925029754639 4.531002044678 135 135 135
20.879909515381 10.925029754639 4.497001647949 146 146 146
20.852062225342 10.959344863892 4.450000762939 138 138 138
20.760780334473 10.686078071594 4.667999267578 75 75 75
20.804168701172 10.650142669678 4.645000457764 141 141 141
20.819709777832 10.648525238037 4.612998962402 146 146 146
20.819709777832 10.648525238037 4.576000213623 146 146 146
20.819709777832 10.648525238037 4.541999816895 146 146 146
20.819709777832 10.648525238037 4.507999420166 144 144 144
20.819709777832 10.648525238037 4.469001770020 141 141 141
20.760780334473 10.686078071594 4.420001983643 194 194 194
21.176292419434 17.696355819702 4.570999145508 210 210 210
21.177909851074 17.711896896362 4.610000610352 220 220 220
21.177909851074 17.711896896362 4.646999359131 217 217 217
21.176292419434 17.696355819702 4.682998657227 163 163 163
21.176639556885 17.397842407227 4.563999176025 195 195 195
21.176639556885 17.397842407227 4.602001190186 219 219 219
21.176639556885 17.397842407227 4.638999938965 220 220 220
21.176639556885 17.397842407227 4.675998687744 200 200 200
21.178602218628 17.114868164063 4.554000854492 170 170 170
21.178602218628 17.114868164063 4.592998504639 184 184 184
21.209684371948 17.111633300781 4.631000518799 198 198 198
21.209684371948 17.111633300781 4.666999816895 210 210 210
21.180566787720 16.831893920898 4.545001983643 109 109 109
21.211648941040 16.828657150269 4.583999633789 214 214 214
21.211648941040 16.828657150269 4.622001647949 198 198 198
21.211648941040 16.828657150269 4.659999847412 215 215 215
21.146249771118 16.804046630859 4.686000823975 101 101 101
21.198072433472 16.547302246094 4.574001312256 216 216 216
21.198072433472 16.547302246094 4.610000610352 212 212 212
21.198072433472 16.547302246094 4.647998809814 210 210 210
21.180913925171 16.533378601074 4.680999755859 169 169 169
21.212341308594 16.231628417969 4.569999694824 218 218 218
21.212341308594 16.231628417969 4.606998443604 205 205 205
21.212341308594 16.231628417969 4.642002105713 218 218 218
21.212341308594 16.231628417969 4.673999786377 195 195 195
21.214305877686 15.948654174805 4.562000274658 212 212 212
21.214305877686 15.948654174805 4.597999572754 176 176 176
21.214305877686 15.948654174805 4.633998870850 213 213 213
21.214305877686 15.948654174805 4.667999267578 205 205 205
21.213035583496 15.634597778320 4.548999786377 201 201 201
21.214653015137 15.650138854980 4.585998535156 217 217 217
21.214653015137 15.650138854980 4.623001098633 220 220 220
21.214653015137 15.650138854980 4.659000396729 219 219 219
21.213035583496 15.634597778320 4.689998626709 53 53 53
21.264858245850 15.377853393555 4.553001403809 221 221 221
21.280399322510 15.376235961914 4.590999603271 221 221 221
21.280399322510 15.376235961914 4.625000000000 217 217 217
21.280399322510 15.376235961914 4.660999298096 220 220 220
21.197839736938 15.337700843811 4.675998687744 178 178 178
21.313444137573 15.090025901794 4.549999237061 220 220 220
21.313444137573 15.090025901794 4.584999084473 223 223 223
21.313444137573 15.090025901794 4.620998382568 223 223 223
21.313444137573 15.090025901794 4.653999328613 222 222 222
21.149946212769 15.028497695923 4.654998779297 215 215 215
21.132787704468 15.014574050903 4.684001922607 25 25 25
21.346490859985 14.803816795349 4.550998687744 221 221 221
21.346490859985 14.803816795349 4.584999084473 221 221 221
21.346490859985 14.803816795349 4.618999481201 225 225 225
21.315408706665 14.807051658630 4.651000976563 225 225 225
21.133132934570 14.716058731079 4.643001556396 216 216 216
21.133132934570 14.716058731079 4.677001953125 127 127 127
21.348455429077 14.520842552185 4.513999938965 30 30 30
21.348455429077 14.520842552185 4.550998687744 222 222 222
21.379537582397 14.517607688904 4.587001800537 222 222 222
21.348455429077 14.520842552185 4.618999481201 223 223 223
21.379537582397 14.517607688904 4.653999328613 224 224 224
21.133480072021 14.417543411255 4.633998870850 210 210 210
21.100780487061 14.405238151550 4.665000915527 200 200 200
21.379882812500 14.219092369080 4.511001586914 70 70 70
21.381500244141 14.234633445740 4.548999786377 223 223 223
21.412582397461 14.231398582458 4.583999633789 224 224 224
21.412582397461 14.231398582458 4.618000030518 222 222 222
21.381500244141 14.234633445740 4.649002075195 224 224 224
21.150985717773 14.132952690125 4.629001617432 222 222 222
21.101125717163 14.106723785400 4.650001525879 201 201 201
21.414545059204 13.948423385620 4.510002136230 84 84 84
21.414545059204 13.948423385620 4.545001983643 223 223 223
21.414545059204 13.948423385620 4.577999114990 224 224 224
21.414545059204 13.948423385620 4.611999511719 224 224 224
21.414545059204 13.948423385620 4.645000457764 224 224 224
21.184030532837 13.846743583679 4.620998382568 223 223 223
21.053232192993 13.797520637512 4.629001617432 205 205 205
21.053232192993 13.797520637512 4.665000915527 175 175 175
21.447591781616 13.662214279175 4.511001586914 119 119 119
21.447591781616 13.662214279175 4.543998718262 223 223 223
21.447591781616 13.662214279175 4.576000213623 223 223 223
21.447591781616 13.662214279175 4.608001708984 223 223 223
21.447591781616 13.662214279175 4.643001556396 223 223 223
21.232618331909 13.558916091919 4.620998382568 224 224 224
21.053579330444 13.499005317688 4.615001678467 218 218 218
21.053579330444 13.499005317688 4.650001525879 205 205 205
21.483873367310 13.407087326050 4.513000488281 177 177 177
21.483873367310 13.407087326050 4.546001434326 222 222 222
21.483873367310 13.407087326050 4.578998565674 221 221 221
21.466714859009 13.393163681030 4.610000610352 223 223 223
21.466714859009 13.393163681030 4.642002105713 224 224 224
21.384157180786 13.354629516602 4.652999877930 161 161 161
21.053924560547 13.200490951538 4.604000091553 157 157 157
21.021224975586 13.188184738159 4.636001586914 200 200 200
21.019607543945 13.172643661499 4.666999816895 59 59 59
21.513685226440 13.089796066284 4.514999389648 203 203 203
21.513685226440 13.089796066284 4.548000335693 212 212 212
21.513685226440 13.089796066284 4.578998565674 221 221 221
21.513685226440 13.089796066284 4.611999511719 208 208 208
21.513685226440 13.089796066284 4.643001556396 222 222 222
21.021572113037 12.889670372009 4.554000854492 216 216 216
21.021572113037 12.889670372009 4.588001251221 219 219 219
21.021572113037 12.889670372009 4.625999450684 194 194 194
21.021572113037 12.889670372009 4.657001495361 169 169 169
21.548349380493 12.819128036499 4.518001556396 215 215 215
21.548349380493 12.819128036499 4.548999786377 223 223 223
21.548349380493 12.819128036499 4.580001831055 223 223 223
21.548349380493 12.819128036499 4.611999511719 224 224 224
21.548349380493 12.819128036499 4.643001556396 222 222 222
21.020299911499 12.575613021851 4.541999816895 216 216 216
21.020299911499 12.575613021851 4.576999664307 220 220 220
21.020299911499 12.575613021851 4.611000061035 211 211 211
21.020299911499 12.575613021851 4.645000457764 207 207 207
21.581394195557 12.532917976379 4.515998840332 219 219 219
21.548694610596 12.520612716675 4.543998718262 222 222 222
21.581394195557 12.532917976379 4.576999664307 222 222 222
21.581394195557 12.532917976379 4.609001159668 221 221 221
21.548694610596 12.520612716675 4.638000488281 222 222 222
20.956865310669 12.268029212952 4.517002105713 210 210 210
20.989564895630 12.280334472656 4.560001373291 202 202 202
20.989564895630 12.280334472656 4.594001770020 204 204 204
20.989564895630 12.280334472656 4.630001068115 196 196 196
20.987947463989 12.264793395996 4.659999847412 69 69 69
21.581741333008 12.234403610229 4.513000488281 221 221 221
21.581741333008 12.234403610229 4.541999816895 222 222 222
21.581741333008 12.234403610229 4.574001312256 223 223 223
21.581741333008 12.234403610229 4.605998992920 222 222 222
21.581741333008 12.234403610229 4.637001037598 223 223 223
20.957210540771 11.969512939453 4.506000518799 159 159 159
20.989910125732 11.981819152832 4.548000335693 154 154 154
20.989910125732 11.981819152832 4.583000183105 143 143 143
20.989910125732 11.981819152832 4.618000030518 144 144 144
20.989910125732 11.981819152832 4.649002075195 138 138 138
21.568164825439 11.953046798706 4.470001220703 190 190 190
21.616405487061 11.963735580444 4.513000488281 156 156 156
21.599246978760 11.949811935425 4.542999267578 164 164 164
21.616405487061 11.963735580444 4.575000762939 166 166 166
21.616405487061 11.963735580444 4.608001708984 158 158 158
21.599246978760 11.949811935425 4.636001586914 146 146 146
21.533847808838 11.925200462341 4.647998809814 163 163 163
20.990257263184 11.683302879333 4.535999298096 156 156 156
20.990257263184 11.683302879333 4.573001861572 158 158 158
20.990257263184 11.683302879333 4.604999542236 159 159 159
20.988639831543 11.667761802673 4.638000488281 151 151 151
21.501493453979 11.614378929138 3.986999511719 188 188 188
21.501493453979 11.614378929138 4.025001525879 191 191 191
21.501493453979 11.614378929138 4.056999206543 189 189 189
21.501493453979 11.614378929138 4.089000701904 189 189 189
21.501493453979 11.614378929138 4.122001647949 190 190 190
21.501493453979 11.614378929138 4.156002044678 191 191 191
21.501493453979 11.614378929138 4.189998626709 188 188 188
21.501493453979 11.614378929138 4.217998504639 190 190 190
21.501493453979 11.614378929138 4.251998901367 191 191 191
21.501493453979 11.614378929138 4.285999298096 185 185 185
21.501493453979 11.614378929138 4.316001892090 190 190 190
21.501493453979 11.614378929138 4.349998474121 189 189 189
21.501493453979 11.614378929138 4.381000518799 192 192 192
21.501493453979 11.614378929138 4.414001464844 191 191 191
21.616752624512 11.665219306946 4.479999542236 146 146 146
21.647834777832 11.661984443665 4.514999389648 156 156 156
21.647834777832 11.661984443665 4.547000885010 159 159 159
21.616752624512 11.665219306946 4.576000213623 161 161 161
21.616752624512 11.665219306946 4.604999542236 154 154 154
21.647834777832 11.661984443665 4.638999938965 153 153 153
21.501493453979 11.614378929138 4.636001586914 185 185 185
21.501493453979 11.614378929138 4.665000915527 183 183 183
21.501493453979 11.614378929138 4.693000793457 176 176 176
21.401775360107 11.561922073364 4.701000213623 137 137 137
21.255435943604 11.514317512512 4.698001861572 146 146 146
21.155719757080 11.461858749390 4.705001831055 98 98 98
21.518999099731 11.329788208008 3.988998413086 179 179 179
21.518999099731 11.329788208008 4.020999908447 197 197 197
21.518999099731 11.329788208008 4.055999755859 196 196 196
21.518999099731 11.329788208008 4.090999603271 201 201 201
