5.966697692871 6.774528503418 48.844997406006 163 163 163
5.841945171356 6.766666412354 48.855998992920 157 157 157
5.841945171356 6.766666412354 48.906997680664 164 164 164
5.838014125824 6.829042911530 48.955997467041 162 162 162
5.775638103485 6.825111865997 48.996997833252 111 111 111
5.530064105988 6.747011661530 48.999996185303 119 119 119
5.721123695374 6.696428775787 48.078998565674 112 112 112
5.721123695374 6.696428775787 48.133998870850 110 110 110
5.721123695374 6.696428775787 48.196998596191 101 101 101
5.721123695374 6.696428775787 48.253997802734 99 99 99
5.658747673035 6.692497730255 48.309997558594 110 110 110
5.658747673035 6.692497730255 48.367996215820 93 93 93
5.721123695374 6.696428775787 48.430999755859 91 91 91
5.849807262421 6.641913890839 48.524997711182 157 157 157
5.849807262421 6.641913890839 48.607997894287 123 123 123
5.974559783936 6.649775981903 48.692996978760 166 166 166
5.974559783936 6.649775981903 48.748996734619 164 164 164
5.974559783936 6.649775981903 48.798999786377 164 164 164
5.970628738403 6.712152481079 48.838996887207 163 163 163
5.849807262421 6.641913890839 48.853996276855 166 166 166
5.849807262421 6.641913890839 48.904998779297 167 167 167
5.849807262421 6.641913890839 48.956996917725 163 163 163
5.787431240082 6.637982845306 48.999996185303 114 114 114
5.533995151520 6.684635639191 49.001998901367 115 115 115
5.982421875000 6.525023460388 48.642997741699 114 114 114
5.982421875000 6.525023460388 48.695999145508 196 196 196
5.982421875000 6.525023460388 48.748996734619 191 191 191
5.982421875000 6.525023460388 48.798000335693 192 192 192
5.982421875000 6.525023460388 48.828998565674 172 172 172
5.354728221893 6.548089981079 48.701999664307 181 181 181
5.233906745911 6.477851390839 48.756996154785 189 189 189
5.354728221893 6.548089981079 48.821998596191 174 174 174
5.986352920532 6.462647438049 48.636997222900 45 45 45
5.986352920532 6.462647438049 48.688999176025 162 162 162
5.986352920532 6.462647438049 48.741996765137 187 187 187
5.986352920532 6.462647438049 48.796997070313 184 184 184
5.986352920532 6.462647438049 48.838996887207 145 145 145
5.366521358490 6.360960960388 48.696998596191 193 193 193
5.366521358490 6.360960960388 48.755996704102 199 199 199
5.366521358490 6.360960960388 48.817996978760 182 182 182
5.998145580292 6.275518417358 48.628997802734 83 83 83
5.998145580292 6.275518417358 48.688999176025 189 189 189
5.998145580292 6.275518417358 48.741996765137 186 186 186
5.998145580292 6.275518417358 48.794998168945 190 190 190
5.994215011597 6.337894916534 48.826000213623 152 152 152
5.253561496735 6.165970325470 48.701000213623 191 191 191
5.253561496735 6.165970325470 48.756996154785 189 189 189
5.253561496735 6.165970325470 48.822998046875 189 189 189
6.006007671356 6.150765895844 48.641998291016 201 201 201
6.006007671356 6.150765895844 48.691997528076 194 194 194
6.006007671356 6.150765895844 48.746997833252 197 197 197
6.006007671356 6.150765895844 48.798000335693 202 202 202
6.006007671356 6.150765895844 48.847999572754 189 189 189
5.382245063782 6.111455917358 48.708999633789 186 186 186
5.382245063782 6.111455917358 48.770996093750 191 191 191
5.378314018250 6.173832416534 48.824996948242 174 174 174
5.315937995911 6.169901371002 48.876998901367 69 69 69
6.009938716888 6.088389873505 48.576000213623 189 189 189
6.009938716888 6.088389873505 48.640998840332 190 190 190
6.009938716888 6.088389873505 48.695999145508 195 195 195
6.009938716888 6.088389873505 48.745998382568 183 183 183
6.009938716888 6.088389873505 48.796997070313 192 192 192
6.009938716888 6.088389873505 48.848999023438 179 179 179
5.327731132507 5.982772350311 48.698997497559 161 161 161
5.390107154846 5.986703395844 48.769996643066 181 181 181
5.390107154846 5.986703395844 48.826999664307 182 182 182
5.390107154846 5.986703395844 48.884998321533 103 103 103
5.539778709412 10.567687034607 48.715999603271 170 170 170
5.543709278107 10.505310058594 48.775997161865 196 196 196
5.543709278107 10.505310058594 48.837997436523 192 192 192
5.551571369171 10.380558013916 48.718997955322 190 190 190
5.551571369171 10.380558013916 48.782997131348 200 200 200
5.551571369171 10.380558013916 48.843997955322 195 195 195
5.555502414703 10.318181991577 48.718997955322 190 190 190
5.555502414703 10.318181991577 48.784000396729 201 201 201
5.563364505768 10.193428993225 48.841999053955 192 192 192
5.563364505768 10.193428993225 48.719997406006 189 189 189
5.563364505768 10.193428993225 48.781997680664 199 199 199
5.563364505768 10.193428993225 48.845996856689 190 190 190
5.575157642365 10.006299972534 48.718997955322 189 189 189
5.575157642365 10.006299972534 48.782997131348 201 201 201
5.575157642365 10.006299972534 48.841999053955 196 196 196
5.583019733429 9.881547927856 48.719997406006 193 193 193
5.583019733429 9.881547927856 48.784000396729 202 202 202
5.583019733429 9.881547927856 48.840999603271 196 196 196
5.399821281433 9.807378768921 48.854999542236 34 34 34
5.590881347656 9.756794929504 48.721996307373 193 193 193
5.590881347656 9.756794929504 48.784996032715 203 203 203
5.590881347656 9.756794929504 48.840000152588 195 195 195
5.470059871674 9.686556816101 48.855998992920 60 60 60
5.594812393188 9.694418907166 48.721996307373 200 200 200
5.594812393188 9.694418907166 48.787998199463 197 197 197
5.598743438721 9.632042884827 48.840000152588 196 196 196
5.415545463562 9.557873725891 48.854999542236 119 119 119
5.606605529785 9.507289886475 48.724998474121 200 200 200
5.606605529785 9.507289886475 48.788997650146 200 200 200
5.606605529785 9.507289886475 48.840000152588 197 197 197
5.423407554626 9.433120727539 48.844997406006 182 182 182
5.610536575317 9.444913864136 48.727996826172 207 207 207
5.610536575317 9.444913864136 48.791999816895 202 202 202
5.614467620850 9.382537841797 48.836997985840 200 200 200
5.431269645691 9.308368682861 48.838996887207 189 189 189
5.622329235077 9.257784843445 48.730998992920 203 203 203
5.622329235077 9.257784843445 48.793998718262 204 204 204
5.626260280609 9.195408821106 48.826999664307 201 201 201
5.443062305450 9.121239662170 48.835998535156 186 186 186
5.559953212738 9.253853797913 48.925998687744 57 57 57
5.439131259918 9.183615684509 48.982997894287 27 27 27
5.692567348480 9.136963844299 48.733997344971 208 208 208
5.692567348480 9.136963844299 48.796997070313 203 203 203
5.630191326141 9.133032798767 48.844997406006 189 189 189
5.626260280609 9.195408821106 48.896999359131 148 148 148
5.626260280609 9.195408821106 48.958000183105 127 127 127
5.626260280609 9.195408821106 49.013996124268 110 110 110
5.638053417206 9.008279800415 48.737998962402 207 207 207
5.638053417206 9.008279800415 48.799999237061 207 207 207
5.458786487579 8.871734619141 48.780998229980 197 197 197
5.334033966064 8.863872528076 48.822998046875 200 200 200
5.704360485077 8.949834823608 48.740997314453 205 205 205
5.704360485077 8.949834823608 48.802997589111 206 206 206
5.466648578644 8.746981620789 48.766998291016 195 195 195
5.345826625824 8.676744461060 48.816997528076 198 198 198
5.712222576141 8.825082778931 48.744998931885 210 210 210
5.653777599335 8.758774757385 48.803997039795 203 203 203
5.349757671356 8.614368438721 48.752998352051 200 200 200
5.353688716888 8.551992416382 48.810997009277 198 198 198
5.720084667206 8.700329780579 48.748996734619 206 206 206
5.720084667206 8.700329780579 48.808998107910 209 209 209
5.361550807953 8.427238464355 48.742996215820 197 197 197
5.299174785614 8.423308372498 48.802997589111 199 199 199
5.727946281433 8.575577735901 48.692996978760 66 66 66
5.727946281433 8.575577735901 48.751998901367 208 208 208
5.727946281433 8.575577735901 48.810997009277 202 202 202
5.369412899017 8.302486419678 48.733997344971 197 197 197
5.369412899017 8.302486419678 48.798999786377 198 198 198
5.739739418030 8.388448715210 48.690998077393 164 164 164
5.739739418030 8.388448715210 48.752998352051 210 210 210
5.739739418030 8.388448715210 48.813999176025 213 213 213
5.377274990082 8.177734375000 48.726997375488 185 185 185
5.377274990082 8.177734375000 48.793998718262 191 191 191
5.743670463562 8.326072692871 48.694000244141 188 188 188
5.743670463562 8.326072692871 48.757999420166 205 205 205
5.743670463562 8.326072692871 48.819000244141 203 203 203
5.385137081146 8.052982330322 48.743999481201 113 113 113
5.326691627502 7.986674785614 48.785999298096 191 191 191
5.751532554626 8.201319694519 48.696998596191 191 191 191
5.751532554626 8.201319694519 48.759998321533 214 214 214
5.751532554626 8.201319694519 48.822998046875 201 201 201
5.330622673035 7.924298763275 48.711997985840 193 193 193
5.330622673035 7.924298763275 48.777000427246 195 195 195
5.334553718567 7.861922740936 48.836997985840 57 57 57
5.759394168854 8.076567649841 48.702999114990 193 193 193
5.759394168854 8.076567649841 48.765998840332 203 203 203
5.759394168854 8.076567649841 48.821998596191 204 204 204
5.342415809631 7.737169742584 48.706996917725 195 195 195
5.342415809631 7.737169742584 48.772998809814 196 196 196
5.342415809631 7.737169742584 48.838996887207 118 118 118
5.829632759094 7.955747127533 48.703998565674 202 202 202
5.829632759094 7.955747127533 48.765998840332 205 205 205
5.829632759094 7.955747127533 48.826000213623 208 208 208
5.350277900696 7.612417221069 48.699996948242 197 197 197
5.350277900696 7.612417221069 48.765998840332 197 197 197
5.350277900696 7.612417221069 48.829998016357 183 183 183
5.899870872498 7.834925174713 48.708999633789 206 206 206
5.899870872498 7.834925174713 48.768997192383 206 206 206
5.899870872498 7.834925174713 48.826999664307 201 201 201
5.299694061279 7.421357631683 48.692996978760 198 198 198
5.299694061279 7.421357631683 48.758998870850 198 198 198
5.299694061279 7.421357631683 48.821998596191 189 189 189
5.849287986755 7.643865108490 48.709999084473 203 203 203
5.849287986755 7.643865108490 48.769996643066 211 211 211
5.849287986755 7.643865108490 48.828998565674 200 200 200
5.307556152344 7.296605110168 48.685997009277 195 195 195
5.369932651520 7.300536155701 48.764999389648 166 166 166
5.307556152344 7.296605110168 48.816997528076 193 193 193
5.919526100159 7.523043632507 48.710998535156 200 200 200
5.919526100159 7.523043632507 48.773998260498 207 207 207
5.919526100159 7.523043632507 48.829998016357 196 196 196
5.315418243408 7.171852588654 48.677997589111 194 194 194
5.315418243408 7.171852588654 48.745998382568 192 192 192
5.315418243408 7.171852588654 48.812000274658 197 197 197
5.923456668854 7.460667610168 48.712997436523 205 205 205
5.923456668854 7.460667610168 48.771999359131 209 209 209
5.923456668854 7.460667610168 48.829998016357 191 191 191
5.327211380005 6.984723567963 48.671997070313 192 192 192
5.327211380005 6.984723567963 48.741996765137 194 194 194
5.327211380005 6.984723567963 48.805000305176 196 196 196
5.931318759918 7.335915088654 48.716999053955 205 205 205
5.931318759918 7.335915088654 48.774997711182 199 199 199
5.931318759918 7.335915088654 48.833000183105 189 189 189
5.331142425537 6.922347545624 48.674999237061 191 191 191
5.331142425537 6.922347545624 48.741996765137 192 192 192
5.331142425537 6.922347545624 48.807998657227 184 184 184
5.580647468567 6.938071727753 48.034999847412 192 192 192
5.580647468567 6.938071727753 48.501998901367 63 63 63
5.939180850983 7.211162567139 48.716999053955 207 207 207
5.939180850983 7.211162567139 48.777000427246 212 212 212
5.939180850983 7.211162567139 48.835998535156 187 187 187
5.580647468567 6.938071727753 48.765998840332 54 54 54
5.580647468567 6.938071727753 48.824996948242 109 109 109
5.580647468567 6.938071727753 48.893997192383 128 128 128
5.580647468567 6.938071727753 48.959999084473 117 117 117
5.518271446228 6.934140682220 48.999996185303 109 109 109
5.588509082794 6.813319206238 48.045997619629 129 129 129
5.588509082794 6.813319206238 48.099998474121 101 101 101
5.588509082794 6.813319206238 48.184997558594 77 77 77
5.588509082794 6.813319206238 48.258998870850 80 80 80
5.588509082794 6.813319206238 48.326000213623 80 80 80
5.709331035614 6.883557319641 48.400997161865 98 98 98
5.767776489258 6.949864864349 48.518997192383 110 110 110
5.767776489258 6.949864864349 48.595996856689 138 138 138
5.947042942047 7.086410045624 48.719997406006 209 209 209
5.947042942047 7.086410045624 48.778999328613 206 206 206
5.947042942047 7.086410045624 48.833000183105 184 184 184
5.767776489258 6.949864864349 48.842998504639 118 118 118
5.767776489258 6.949864864349 48.906997680664 123 123 123
5.767776489258 6.949864864349 48.968997955322 122 122 122
5.705399990082 6.945933818817 48.998996734619 108 108 108
5.526133060455 6.809388160706 49.000999450684 112 112 112
5.775638103485 6.825111865997 48.055000305176 150 150 150
5.717192649841 6.758804798126 48.100997924805 104 104 104
5.717192649841 6.758804798126 48.164997100830 107 107 107
5.717192649841 6.758804798126 48.230998992920 107 107 107
5.717192649841 6.758804798126 48.303997039795 110 110 110
5.717192649841 6.758804798126 48.369998931885 101 101 101
5.717192649841 6.758804798126 48.430999755859 103 103 103
5.834083080292 6.891418933868 48.534000396729 171 171 171
5.958836078644 6.899281024933 48.653999328613 162 162 162
5.954905033112 6.961657524109 48.723999023438 146 146 146
5.954905033112 6.961657524109 48.782997131348 157 157 157
5.958836078644 6.899281024933 48.836997985840 183 183 183
5.834083080292 6.891418933868 48.846996307373 161 161 161
5.834083080292 6.891418933868 48.906997680664 167 167 167
5.834083080292 6.891418933868 48.968997955322 156 156 156
5.717192649841 6.758804798126 49.002998352051 109 109 109
5.471618652344 6.680704593658 49.004997253418 113 113 113
5.783500194550 6.700359821320 48.535999298096 122 122 122
5.966697692871 6.774528503418 48.661998748779 178 178 178
5.966697692871 6.774528503418 48.726997375488 159 159 159
5.966697692871 6.774528503418 48.785999298096 147 147 147
5.966697692871 6.774528503418 48.841999053955 184 184 184
5.783500194550 6.700359821320 48.851997375488 139 139 139
5.783500194550 6.700359821320 48.909000396729 162 162 162
5.783500194550 6.700359821320 48.966999053955 154 154 154
5.787431240082 6.637982845306 49.007999420166 102 102 102
5.791362285614 6.575606822968 48.534996032715 170 170 170
5.970628738403 6.712152481079 48.661998748779 182 182 182
6.033005237579 6.716083526611 48.729999542236 150 150 150
5.970628738403 6.712152481079 48.785999298096 159 159 159
5.970628738403 6.712152481079 48.842998504639 185 185 185
5.853738307953 6.579537868500 48.849998474121 169 169 169
5.791362285614 6.575606822968 48.905998229980 169 169 169
5.791362285614 6.575606822968 48.956996917725 179 179 179
5.978490829468 6.587399959564 48.664997100830 187 187 187
5.978490829468 6.587399959564 48.725997924805 188 188 188
5.978490829468 6.587399959564 48.787998199463 188 188 188
5.978490829468 6.587399959564 48.841999053955 184 184 184
5.315937995911 6.169901371002 48.673000335693 185 185 185
5.315937995911 6.169901371002 48.741996765137 192 192 192
5.315937995911 6.169901371002 48.806999206543 181 181 181
5.315937995911 6.169901371002 48.874996185303 153 153 153
5.986352920532 6.462647438049 48.659996032715 178 178 178
5.986352920532 6.462647438049 48.719997406006 188 188 188
5.986352920532 6.462647438049 48.781997680664 176 176 176
5.986352920532 6.462647438049 48.837997436523 178 178 178
5.327731132507 5.982772350311 48.667999267578 180 180 180
5.327731132507 5.982772350311 48.738998413086 177 177 177
5.327731132507 5.982772350311 48.805999755859 180 180 180
5.327731132507 5.982772350311 48.874996185303 122 122 122
5.998145580292 6.275518417358 48.653999328613 171 171 171
5.998145580292 6.275518417358 48.715999603271 187 187 187
5.998145580292 6.275518417358 48.773998260498 188 188 188
5.998145580292 6.275518417358 48.831996917725 183 183 183
5.881255149841 6.142903804779 48.555999755859 213 213 213
6.006007671356 6.150765895844 48.659000396729 190 190 190
6.006007671356 6.150765895844 48.718997955322 189 189 189
6.006007671356 6.150765895844 48.778999328613 188 188 188
6.006007671356 6.150765895844 48.840000152588 190 190 190
6.006007671356 6.150765895844 48.877998352051 142 142 142
6.009938716888 6.088389873505 48.591999053955 174 174 174
6.009938716888 6.088389873505 48.656997680664 187 187 187
6.072315216064 6.092320919037 48.730998992920 163 163 163
6.009938716888 6.088389873505 48.777000427246 189 189 189
6.009938716888 6.088389873505 48.837997436523 187 187 187
6.009938716888 6.088389873505 48.888996124268 72 72 72
5.485264301300 10.439002990723 48.866996765137 59 59 59
5.551571369171 10.380558013916 48.827999114990 216 216 216
5.551571369171 10.380558013916 48.766998291016 212 212 212
5.547640323639 10.442934036255 48.699996948242 46 46 46
5.493125915527 10.314250946045 48.864997863770 57 57 57
5.559433460236 10.255805015564 48.831996917725 215 215 215
5.559433460236 10.255805015564 48.768997192383 215 215 215
5.555502414703 10.318181991577 48.705997467041 91 91 91
5.497056961060 10.251873970032 48.861999511719 55 55 55
5.563364505768 10.193428993225 48.834999084473 216 216 216
5.563364505768 10.193428993225 48.770996093750 213 213 213
5.563364505768 10.193428993225 48.710998535156 128 128 128
5.508850097656 10.064745903015 48.861999511719 68 68 68
5.571226596832 10.068676948547 48.833000183105 216 216 216
5.571226596832 10.068676948547 48.773998260498 212 212 212
5.571226596832 10.068676948547 48.711997985840 160 160 160
5.516712188721 9.939992904663 48.862998962402 76 76 76
5.583019733429 9.881547927856 48.836997985840 216 216 216
5.583019733429 9.881547927856 48.777996063232 212 212 212
5.583019733429 9.881547927856 48.713996887207 183 183 183
5.458266735077 9.873685836792 48.858997344971 88 88 88
5.590881347656 9.756794929504 48.840000152588 215 215 215
5.649326324463 9.823102951050 48.781997680664 211 211 211
5.590881347656 9.756794929504 48.716999053955 200 200 200
5.466128826141 9.748932838440 48.858997344971 117 117 117
5.598743438721 9.632042884827 48.843997955322 211 211 211
5.598743438721 9.632042884827 48.782997131348 213 213 213
5.598743438721 9.632042884827 48.719997406006 203 203 203
5.477921962738 9.561804771423 48.854999542236 134 134 134
5.606605529785 9.507289886475 48.840999603271 214 214 214
5.672912597656 9.448844909668 48.787998199463 211 211 211
5.672912597656 9.448844909668 48.724998474121 212 212 212
5.481853008270 9.499427795410 48.847999572754 169 169 169
5.610536575317 9.444913864136 48.838996887207 216 216 216
5.672912597656 9.448844909668 48.789997100830 211 211 211
5.672912597656 9.448844909668 48.725997924805 213 213 213
5.427338600159 9.370744705200 48.843997955322 192 192 192
5.622329235077 9.257784843445 48.833000183105 215 215 215
5.684705257416 9.261715888977 48.792999267578 213 213 213
5.684705257416 9.261715888977 48.728996276855 215 215 215
5.563883781433 9.191477775574 48.955997467041 119 119 119
5.563883781433 9.191477775574 48.880996704102 161 161 161
5.692567348480 9.136963844299 48.851997375488 193 193 193
5.754943847656 9.140894889832 48.794998168945 211 211 211
5.692567348480 9.136963844299 48.730998992920 212 212 212
5.571745872498 9.066725730896 48.954998016357 132 132 132
5.634122371674 9.070656776428 48.894996643066 131 131 131
5.509369850159 9.062794685364 48.789997100830 218 218 218
5.700429439545 9.012210845947 48.794998168945 214 214 214
5.700429439545 9.012210845947 48.737998962402 213 213 213
5.450924396515 8.996486663818 48.827999114990 216 216 216
5.450924396515 8.996486663818 48.779998779297 220 220 220
5.712222576141 8.825082778931 48.803997039795 213 213 213
5.712222576141 8.825082778931 48.742996215820 212 212 212
5.454855442047 8.934110641479 48.826999664307 214 214 214
5.454855442047 8.934110641479 48.764999389648 221 221 221
5.720084667206 8.700329780579 48.807998657227 213 213 213
5.720084667206 8.700329780579 48.747997283936 211 211 211
5.466648578644 8.746981620789 48.824996948242 216 216 216
5.404272556305 8.743050575256 48.756996154785 221 221 221
5.727946281433 8.575577735901 48.814998626709 212 212 212
5.727946281433 8.575577735901 48.752998352051 211 211 211
5.727946281433 8.575577735901 48.690998077393 97 97 97
5.412134170532 8.618298530579 48.821998596191 219 219 219
5.408203601837 8.680674552917 48.751998901367 221 221 221
5.860560894012 8.458686828613 48.820999145508 212 212 212
5.860560894012 8.458686828613 48.758998870850 212 212 212
5.798184871674 8.454755783081 48.694000244141 179 179 179
5.416065216064 8.555922508240 48.815998077393 221 221 221
5.416065216064 8.555922508240 48.750999450684 220 220 220
5.743670463562 8.326072692871 48.824996948242 216 216 216
5.743670463562 8.326072692871 48.764999389648 214 214 214
5.743670463562 8.326072692871 48.703998565674 205 205 205
5.361550807953 8.427238464355 48.812000274658 219 219 219
5.361550807953 8.427238464355 48.748996734619 218 218 218
5.876285076141 8.209181785583 48.827999114990 214 214 214
5.876285076141 8.209181785583 48.768997192383 215 215 215
5.876285076141 8.209181785583 48.708999633789 213 213 213
5.369412899017 8.302486419678 48.808998107910 220 220 220
5.369412899017 8.302486419678 48.744998931885 219 219 219
5.759394168854 8.076567649841 48.831996917725 214 214 214
5.821771144867 8.080498695374 48.772998809814 214 214 214
5.821771144867 8.080498695374 48.713996887207 214 214 214
5.377274990082 8.177734375000 48.803997039795 219 219 219
5.377274990082 8.177734375000 48.736999511719 219 219 219
5.829632759094 7.955747127533 48.834999084473 207 207 207
5.829632759094 7.955747127533 48.777000427246 213 213 213
5.829632759094 7.955747127533 48.713996887207 215 215 215
5.385137081146 8.052982330322 48.798999786377 205 205 205
5.385137081146 8.052982330322 48.735996246338 130 130 130
5.899870872498 7.834925174713 48.840000152588 205 205 205
5.899870872498 7.834925174713 48.779998779297 213 213 213
5.899870872498 7.834925174713 48.720996856689 214 214 214
5.392998695374 7.928229808807 48.791000366211 223 223 223
5.392998695374 7.928229808807 48.728996276855 213 213 213
5.849287986755 7.643865108490 48.842998504639 183 183 183
5.849287986755 7.643865108490 48.784000396729 210 210 210
5.849287986755 7.643865108490 48.722999572754 215 215 215
5.400860786438 7.803476810455 48.787998199463 219 219 219
5.400860786438 7.803476810455 48.721996307373 211 211 211
5.919526100159 7.523043632507 48.847999572754 164 164 164
5.919526100159 7.523043632507 48.785999298096 215 215 215
5.919526100159 7.523043632507 48.727996826172 215 215 215
5.342415809631 7.737169742584 48.846996307373 51 51 51
5.342415809631 7.737169742584 48.780998229980 220 220 220
5.342415809631 7.737169742584 48.713996887207 213 213 213
5.927387714386 7.398291110992 48.851997375488 137 137 137
5.927387714386 7.398291110992 48.789997100830 217 217 217
5.927387714386 7.398291110992 48.731998443604 213 213 213
5.350277900696 7.612417221069 48.845996856689 104 104 104
5.350277900696 7.612417221069 48.773998260498 221 221 221
5.350277900696 7.612417221069 48.710998535156 218 218 218
5.935249805450 7.273538589478 48.855998992920 96 96 96
5.939180850983 7.211162567139 48.793998718262 214 214 214
5.939180850983 7.211162567139 48.734996795654 217 217 217
5.939180850983 7.211162567139 48.670997619629 97 97 97
5.299694061279 7.421357631683 48.841999053955 106 106 106
5.299694061279 7.421357631683 48.770996093750 221 221 221
5.299694061279 7.421357631683 48.706996917725 217 217 217
6.005488395691 7.152717113495 48.798999786377 213 213 213
5.943111896515 7.148786067963 48.738998413086 216 216 216
6.005488395691 7.152717113495 48.678997039795 180 180 180
5.303625106812 7.358981132507 48.833999633789 137 137 137
5.369932651520 7.300536155701 48.777000427246 181 181 181
5.369932651520 7.300536155701 48.706996917725 193 193 193
5.954905033112 6.961657524109 48.801998138428 199 199 199
5.954905033112 6.961657524109 48.737998962402 195 195 195
5.954905033112 6.961657524109 48.680999755859 179 179 179
5.311487197876 7.234228610992 48.829998016357 161 161 161
5.311487197876 7.234228610992 48.756996154785 196 196 196
5.311487197876 7.234228610992 48.689998626709 197 197 197
5.958836078644 6.899281024933 48.850997924805 154 154 154
6.021212100983 6.903212070465 48.805000305176 149 149 149
6.021212100983 6.903212070465 48.744998931885 154 154 154
6.021212100983 6.903212070465 48.685997009277 175 175 175
5.572785377502 7.062824249268 48.032997131348 118 118 118
5.701468944550 7.008309841156 48.029998779297 182 182 182
5.646955013275 6.879626274109 49.003997802734 94 94 94
5.834083080292 6.891418933868 48.986999511719 153 153 153
5.834083080292 6.891418933868 48.928997039795 164 164 164
5.834083080292 6.891418933868 48.867996215820 163 163 163
5.966697692871 6.774528503418 48.852996826172 171 171 171
6.029074192047 6.778459548950 48.805999755859 161 161 161
6.029074192047 6.778459548950 48.746997833252 158 158 158
6.029074192047 6.778459548950 48.684997558594 163 163 163
5.838014125824 6.829042911530 48.557998657227 171 171 171
5.834083080292 6.891418933868 48.474998474121 201 201 201
5.576716423035 7.000447750092 48.029998779297 195 195 195
5.459825992584 6.867833137512 49.009998321533 58 58 58
5.717192649841 6.758804798126 49.013996124268 121 121 121
5.783500194550 6.700359821320 48.986999511719 163 163 163
5.783500194550 6.700359821320 48.930999755859 163 163 163
5.845876216888 6.704290390015 48.870998382568 162 162 162
5.970628738403 6.712152481079 48.841999053955 162 162 162
6.036936283112 6.653707027435 48.807998657227 165 165 165
6.036936283112 6.653707027435 48.750999450684 173 173 173
6.036936283112 6.653707027435 48.688999176025 176 176 176
5.783500194550 6.700359821320 48.553997039795 100 100 100
5.783500194550 6.700359821320 48.484996795654 121 121 121
5.717192649841 6.758804798126 48.390998840332 89 89 89
5.717192649841 6.758804798126 48.324996948242 103 103 103
5.717192649841 6.758804798126 48.257999420166 103 103 103
5.717192649841 6.758804798126 48.192996978760 92 92 92
5.717192649841 6.758804798126 48.123996734619 96 96 96
5.717192649841 6.758804798126 48.053997039795 90 90 90
5.463756561279 6.805457115173 49.008998870850 87 87 87
5.721123695374 6.696428775787 49.010997772217 114 114 114
5.853738307953 6.579537868500 48.987998962402 165 165 165
5.853738307953 6.579537868500 48.927997589111 162 162 162
5.853738307953 6.579537868500 48.867996215820 168 168 168
5.982421875000 6.525023460388 48.838996887207 163 163 163
6.048729419708 6.466578483582 48.807998657227 172 172 172
6.048729419708 6.466578483582 48.748996734619 185 185 185
6.048729419708 6.466578483582 48.685997009277 178 178 178
5.853738307953 6.579537868500 48.555000305176 170 170 170
5.787431240082 6.637982845306 48.470996856689 125 125 125
5.721123695374 6.696428775787 48.369998931885 110 110 110
5.721123695374 6.696428775787 48.302997589111 123 123 123
5.721123695374 6.696428775787 48.235996246338 116 116 116
5.721123695374 6.696428775787 48.169998168945 116 116 116
5.721123695374 6.696428775787 48.097999572754 130 130 130
5.721123695374 6.696428775787 48.028999328613 143 143 143
5.475549697876 6.618328094482 49.010997772217 90 90 90
5.666609764099 6.567745208740 48.993999481201 127 127 127
5.666609764099 6.567745208740 48.931999206543 139 139 139
5.666609764099 6.567745208740 48.872997283936 129 129 129
5.666609764099 6.567745208740 48.809997558594 154 154 154
5.865531444550 6.392408847809 48.830997467041 155 155 155
5.994215011597 6.337894916534 48.801998138428 199 199 199
5.994215011597 6.337894916534 48.741996765137 201 201 201
5.994215011597 6.337894916534 48.683998107910 191 191 191
5.483411788940 6.493575572968 48.928997039795 47 47 47
5.354728221893 6.548089981079 48.836997985840 180 180 180
5.417104721069 6.552021026611 48.781997680664 177 177 177
5.417104721069 6.552021026611 48.713996887207 167 167 167
5.998145580292 6.275518417358 48.849998474121 151 151 151
5.998145580292 6.275518417358 48.796997070313 197 197 197
5.998145580292 6.275518417358 48.734996795654 196 196 196
5.998145580292 6.275518417358 48.673999786377 189 189 189
5.296283245087 6.481782436371 48.816997528076 178 178 178
5.233906745911 6.477851390839 48.743999481201 186 186 186
5.233906745911 6.477851390839 48.674999237061 150 150 150
6.009938716888 6.088389873505 48.859996795654 209 209 209
6.009938716888 6.088389873505 48.799999237061 198 198 198
6.072315216064 6.092320919037 48.742996215820 187 187 187
6.009938716888 6.088389873505 48.675998687744 199 199 199
6.009938716888 6.088389873505 48.616996765137 194 194 194
5.366521358490 6.360960960388 48.814998626709 193 193 193
5.366521358490 6.360960960388 48.744998931885 196 196 196
5.300214290619 6.419406414032 48.659996032715 161 161 161
6.013869762421 6.026013374329 48.856998443604 195 195 195
6.013869762421 6.026013374329 48.798999786377 198 198 198
6.013869762421 6.026013374329 48.736999511719 185 185 185
6.013869762421 6.026013374329 48.675998687744 194 194 194
6.013869762421 6.026013374329 48.613998413086 135 135 135
5.253561496735 6.165970325470 48.813999176025 188 188 188
5.253561496735 6.165970325470 48.743999481201 188 188 188
5.253561496735 6.165970325470 48.676998138428 182 182 182
5.382245063782 6.111455917358 48.888996124268 151 151 151
5.382245063782 6.111455917358 48.821998596191 192 192 192
5.382245063782 6.111455917358 48.753997802734 179 179 179
5.382245063782 6.111455917358 48.684997558594 178 178 178
5.382245063782 6.111455917358 48.613998413086 164 164 164
5.390107154846 5.986703395844 48.880996704102 119 119 119
5.390107154846 5.986703395844 48.819000244141 174 174 174
5.390107154846 5.986703395844 48.749996185303 172 172 172
5.394038200378 5.924327373505 48.683998107910 171 171 171
5.390107154846 5.986703395844 48.612998962402 86 86 86
5.335593223572 5.858019828796 48.803997039795 142 142 142
5.335593223572 5.858019828796 48.740997314453 151 151 151
5.335593223572 5.858019828796 48.667999267578 119 119 119
5.386176109314 6.049079895020 48.876998901367 170 170 170
5.386176109314 6.049079895020 48.812000274658 176 176 176
5.386176109314 6.049079895020 48.742996215820 160 160 160
5.386176109314 6.049079895020 48.673999786377 175 175 175
5.386176109314 6.049079895020 48.606998443604 164 164 164
5.378314018250 6.173832416534 48.873996734619 26 26 26
5.378314018250 6.173832416534 48.807998657227 168 168 168
5.382245063782 6.111455917358 48.741996765137 194 194 194
5.382245063782 6.111455917358 48.674999237061 186 186 186
5.315937995911 6.169901371002 48.596996307373 150 150 150
5.253561496735 6.165970325470 48.801998138428 193 193 193
5.253561496735 6.165970325470 48.733997344971 200 200 200
5.253561496735 6.165970325470 48.663997650146 185 185 185
6.021731853485 5.901260852814 48.767997741699 115 115 115
6.021731853485 5.901260852814 48.712997436523 102 102 102
5.366521358490 6.360960960388 48.801998138428 189 189 189
5.366521358490 6.360960960388 48.731998443604 196 196 196
6.009938716888 6.088389873505 48.886997222900 84 84 84
6.013869762421 6.026013374329 48.844997406006 199 199 199
6.013869762421 6.026013374329 48.785999298096 193 193 193
6.013869762421 6.026013374329 48.727996826172 179 179 179
6.013869762421 6.026013374329 48.668998718262 192 192 192
6.013869762421 6.026013374329 48.603996276855 175 175 175
5.300214290619 6.419406414032 48.649997711182 148 148 148
5.233906745911 6.477851390839 48.798999786377 173 173 173
5.233906745911 6.477851390839 48.727996826172 182 182 182
5.233906745911 6.477851390839 48.661998748779 148 148 148
6.009938716888 6.088389873505 48.844997406006 208 208 208
6.009938716888 6.088389873505 48.785999298096 199 199 199
6.009938716888 6.088389873505 48.729999542236 195 195 195
6.009938716888 6.088389873505 48.666999816895 200 200 200
6.009938716888 6.088389873505 48.603996276855 199 199 199
5.354728221893 6.548089981079 48.812000274658 179 179 179
5.417104721069 6.552021026611 48.754997253418 179 179 179
5.417104721069 6.552021026611 48.692996978760 166 166 166
5.998145580292 6.275518417358 48.837997436523 164 164 164
5.998145580292 6.275518417358 48.780998229980 199 199 199
5.998145580292 6.275518417358 48.720996856689 194 194 194
5.998145580292 6.275518417358 48.659996032715 190 190 190
5.537926197052 6.622259140015 48.996997833252 113 113 113
5.604233264923 6.563814163208 48.961997985840 137 137 137
5.604233264923 6.563814163208 48.902000427246 128 128 128
5.604233264923 6.563814163208 48.838996887207 140 140 140
5.604233264923 6.563814163208 48.777996063232 149 149 149
5.990283966064 6.400270938873 48.833000183105 145 145 145
5.994215011597 6.337894916534 48.784000396729 204 204 204
5.994215011597 6.337894916534 48.724998474121 197 197 197
5.994215011597 6.337894916534 48.663997650146 196 196 196
5.471618652344 6.680704593658 48.998996734619 115 115 115
5.725054740906 6.634052276611 49.001998901367 106 106 106
5.853738307953 6.579537868500 48.961997985840 148 148 148
5.791362285614 6.575606822968 48.900997161865 156 156 156
5.853738307953 6.579537868500 48.841999053955 156 156 156
5.986352920532 6.462647438049 48.831996917725 161 161 161
5.986352920532 6.462647438049 48.784000396729 165 165 165
5.986352920532 6.462647438049 48.726997375488 186 186 186
5.986352920532 6.462647438049 48.666000366211 191 191 191
5.791362285614 6.575606822968 48.525997161865 157 157 157
5.658747673035 6.692497730255 48.398998260498 107 107 107
5.658747673035 6.692497730255 48.331996917725 124 124 124
5.658747673035 6.692497730255 48.266998291016 116 116 116
5.658747673035 6.692497730255 48.194999694824 107 107 107
5.658747673035 6.692497730255 48.129997253418 102 102 102
5.658747673035 6.692497730255 48.062999725342 124 124 124
5.588509082794 6.813319206238 48.998996734619 112 112 112
5.787431240082 6.637982845306 49.002998352051 114 114 114
5.849807262421 6.641913890839 48.962997436523 162 162 162
5.849807262421 6.641913890839 48.904998779297 163 163 163
5.853738307953 6.579537868500 48.845996856689 165 165 165
5.978490829468 6.587399959564 48.840000152588 170 170 170
5.982421875000 6.525023460388 48.787998199463 191 191 191
5.978490829468 6.587399959564 48.727996826172 189 189 189
5.982421875000 6.525023460388 48.669998168945 187 187 187
5.849807262421 6.641913890839 48.531997680664 157 157 157
5.787431240082 6.637982845306 48.434997558594 107 107 107
5.721123695374 6.696428775787 48.364997863770 115 115 115
5.721123695374 6.696428775787 48.294998168945 133 133 133
5.721123695374 6.696428775787 48.227996826172 117 117 117
5.721123695374 6.696428775787 48.162998199463 115 115 115
5.721123695374 6.696428775787 48.097999572754 129 129 129
5.721123695374 6.696428775787 48.024997711182 131 131 131
5.518271446228 6.934140682220 48.997997283936 60 60 60
5.713261604309 6.821181297302 48.994998931885 109 109 109
5.841945171356 6.766666412354 48.960998535156 155 155 155
5.841945171356 6.766666412354 48.904998779297 163 163 163
5.841945171356 6.766666412354 48.843997955322 149 149 149
5.974559783936 6.649775981903 48.836997985840 174 174 174
5.974559783936 6.649775981903 48.780998229980 150 150 150
5.974559783936 6.649775981903 48.719997406006 154 154 154
5.974559783936 6.649775981903 48.663997650146 173 173 173
5.841945171356 6.766666412354 48.529998779297 139 139 139
5.767776489258 6.949864864349 48.991996765137 84 84 84
5.834083080292 6.891418933868 48.960998535156 164 164 164
5.834083080292 6.891418933868 48.902000427246 164 164 164
5.834083080292 6.891418933868 48.840999603271 162 162 162
5.966697692871 6.774528503418 48.835998535156 173 173 173
5.966697692871 6.774528503418 48.780998229980 149 149 149
5.966697692871 6.774528503418 48.718997955322 151 151 151
5.966697692871 6.774528503418 48.653999328613 175 175 175
5.834083080292 6.891418933868 48.530998229980 171 171 171
5.639092922211 7.004378795624 48.034999847412 197 197 197
5.311487197876 7.234228610992 48.802997589111 216 216 216
5.311487197876 7.234228610992 48.734996795654 212 212 212
5.311487197876 7.234228610992 48.667999267578 201 201 201
5.958836078644 6.899281024933 48.833000183105 181 181 181
5.958836078644 6.899281024933 48.773998260498 148 148 148
5.958836078644 6.899281024933 48.715000152588 155 155 155
5.958836078644 6.899281024933 48.645996093750 178 178 178
5.635161876678 7.066755294800 48.048000335693 119 119 119
5.303625106812 7.358981132507 48.802997589111 215 215 215
5.369932651520 7.300536155701 48.748996734619 166 166 166
5.303625106812 7.358981132507 48.669998168945 200 200 200
5.954905033112 6.961657524109 48.829998016357 168 168 168
5.954905033112 6.961657524109 48.771999359131 213 213 213
5.954905033112 6.961657524109 48.712997436523 209 209 209
5.299694061279 7.421357631683 48.806999206543 215 215 215
5.299694061279 7.421357631683 48.740997314453 217 217 217
5.299694061279 7.421357631683 48.674999237061 208 208 208
5.943111896515 7.148786067963 48.826000213623 188 188 188
5.943111896515 7.148786067963 48.767997741699 213 213 213
6.005488395691 7.152717113495 48.709999084473 213 213 213
5.350277900696 7.612417221069 48.808998107910 213 213 213
5.350277900696 7.612417221069 48.740997314453 217 217 217
5.350277900696 7.612417221069 48.678997039795 211 211 211
5.939180850983 7.211162567139 48.823997497559 199 199 199
5.939180850983 7.211162567139 48.766998291016 211 211 211
5.939180850983 7.211162567139 48.705997467041 216 216 216
5.287901401520 7.608486175537 48.813999176025 192 192 192
5.287901401520 7.608486175537 48.747997283936 217 217 217
5.287901401520 7.608486175537 48.683998107910 217 217 217
5.989764213562 7.402222156525 48.820999145508 203 203 203
5.989764213562 7.402222156525 48.764999389648 212 212 212
5.989764213562 7.402222156525 48.702999114990 213 213 213
5.400860786438 7.803476810455 48.817996978760 192 192 192
5.400860786438 7.803476810455 48.752998352051 219 219 219
5.400860786438 7.803476810455 48.688999176025 216 216 216
5.919526100159 7.523043632507 48.817996978760 209 209 209
5.919526100159 7.523043632507 48.759998321533 212 212 212
5.919526100159 7.523043632507 48.698997497559 213 213 213
5.330622673035 7.924298763275 48.821998596191 189 189 189
5.330622673035 7.924298763275 48.755996704102 220 220 220
5.334553718567 7.861922740936 48.690998077393 218 218 218
5.915595054626 7.585420131683 48.812999725342 210 210 210
5.911664009094 7.647796154022 48.751998901367 214 214 214
5.915595054626 7.585420131683 48.694000244141 210 210 210
5.389067649841 7.990605831146 48.824996948242 177 177 177
5.389067649841 7.990605831146 48.758998870850 197 197 197
5.389067649841 7.990605831146 48.694000244141 213 213 213
5.907732963562 7.710173130035 48.806999206543 218 218 218
5.907732963562 7.710173130035 48.747997283936 213 213 213
5.907732963562 7.710173130035 48.688999176025 208 208 208
5.381206035614 8.115358352661 48.826999664307 177 177 177
5.385137081146 8.052982330322 48.764999389648 116 116 116
5.385137081146 8.052982330322 48.695999145508 217 217 217
5.899870872498 7.834925174713 48.802997589111 212 212 212
5.899870872498 7.834925174713 48.741996765137 211 211 211
5.899870872498 7.834925174713 48.681999206543 181 181 181
5.377274990082 8.177734375000 48.827999114990 152 152 152
5.377274990082 8.177734375000 48.763996124268 217 217 217
5.377274990082 8.177734375000 48.699996948242 211 211 211
5.892008781433 7.959678173065 48.798000335693 214 214 214
5.892008781433 7.959678173065 48.738998413086 212 212 212
5.892008781433 7.959678173065 48.678997039795 166 166 166
5.369412899017 8.302486419678 48.830997467041 166 166 166
5.369412899017 8.302486419678 48.763996124268 219 219 219
5.369412899017 8.302486419678 48.697998046875 218 218 218
5.821771144867 8.080498695374 48.792999267578 212 212 212
5.759394168854 8.076567649841 48.731998443604 212 212 212
5.365481853485 8.364862442017 48.831996917725 150 150 150
5.365481853485 8.364862442017 48.762996673584 221 221 221
5.365481853485 8.364862442017 48.703998565674 211 211 211
5.751532554626 8.201319694519 48.785999298096 213 213 213
5.817840099335 8.142874717712 48.726997375488 212 212 212
5.416065216064 8.555922508240 48.833000183105 138 138 138
5.416065216064 8.555922508240 48.765998840332 220 220 220
5.739739418030 8.388448715210 48.809997558594 222 222 222
5.743670463562 8.326072692871 48.782997131348 210 210 210
5.743670463562 8.326072692871 48.719997406006 213 213 213
5.349757671356 8.614368438721 48.836997985840 92 92 92
5.349757671356 8.614368438721 48.770996093750 220 220 220
5.735808372498 8.450824737549 48.817996978760 219 219 219
5.802115917206 8.392379760742 48.775997161865 213 213 213
5.802115917206 8.392379760742 48.717998504639 212 212 212
5.466648578644 8.746981620789 48.835998535156 39 39 39
5.466648578644 8.746981620789 48.774997711182 224 224 224
5.727946281433 8.575577735901 48.823997497559 216 216 216
5.790322780609 8.579508781433 48.772998809814 212 212 212
5.790322780609 8.579508781433 48.713996887207 210 210 210
5.400341510773 8.805427551270 48.782997131348 221 221 221
5.720084667206 8.700329780579 48.826999664307 212 212 212
5.782460689545 8.704260826111 48.770996093750 212 212 212
5.720084667206 8.700329780579 48.708999633789 212 212 212
5.392479419708 8.930179595947 48.786998748779 221 221 221
5.720084667206 8.700329780579 48.824996948242 211 211 211
5.720084667206 8.700329780579 48.768997192383 212 212 212
5.720084667206 8.700329780579 48.705997467041 211 211 211
5.450924396515 8.996486663818 48.791000366211 219 219 219
5.708291530609 8.887458801270 48.821998596191 214 214 214
5.708291530609 8.887458801270 48.764999389648 210 210 210
5.704360485077 8.949834823608 48.698997497559 206 206 206
5.571745872498 9.066725730896 48.977996826172 149 149 149
5.571745872498 9.066725730896 48.917999267578 136 136 136
5.571745872498 9.066725730896 48.852996826172 142 142 142
5.700429439545 9.012210845947 48.820999145508 213 213 213
5.700429439545 9.012210845947 48.758998870850 211 211 211
5.505438804626 9.125170707703 48.638996124268 255 255 255
5.431269645691 9.308368682861 48.802997589111 213 213 213
5.692567348480 9.136963844299 48.815998077393 214 214 214
5.692567348480 9.136963844299 48.752998352051 213 213 213
5.692567348480 9.136963844299 48.685997009277 176 176 176
5.427338600159 9.370744705200 48.800998687744 219 219 219
5.684705257416 9.261715888977 48.810997009277 214 214 214
5.684705257416 9.261715888977 48.752998352051 208 208 208
5.684705257416 9.261715888977 48.687000274658 145 145 145
5.481853008270 9.499427795410 48.803997039795 219 219 219
5.680774688721 9.324092864990 48.806999206543 213 213 213
5.680774688721 9.324092864990 48.746997833252 212 212 212
5.415545463562 9.557873725891 48.803997039795 222 222 222
5.672912597656 9.448844909668 48.803997039795 212 212 212
5.672912597656 9.448844909668 48.741996765137 212 212 212
5.532435894012 9.690487861633 48.810997009277 218 218 218
5.665050506592 9.573597908020 48.802997589111 214 214 214
5.665050506592 9.573597908020 48.741996765137 210 210 210
5.399821281433 9.807378768921 48.809997558594 222 222 222
5.653257369995 9.760725975037 48.798000335693 214 214 214
5.653257369995 9.760725975037 48.738998413086 211 211 211
5.516712188721 9.939992904663 48.816997528076 217 217 217
5.649326324463 9.823102951050 48.796997070313 214 214 214
5.649326324463 9.823102951050 48.736999511719 210 210 210
5.450405120850 9.998437881470 48.819999694824 216 216 216
5.583019733429 9.881547927856 48.793998718262 215 215 215
5.641464710236 9.947854995728 48.734996795654 210 210 210
5.504919052124 10.127121925354 48.834999084473 176 176 176
5.571226596832 10.068676948547 48.795997619629 215 215 215
5.571226596832 10.068676948547 48.734996795654 208 208 208
5.500988006592 10.189497947693 48.836997985840 177 177 177
5.563364505768 10.193428993225 48.794998168945 213 213 213
5.563364505768 10.193428993225 48.734996795654 211 211 211
5.493125915527 10.314250946045 48.837997436523 180 180 180
5.559433460236 10.255805015564 48.795997619629 210 210 210
5.559433460236 10.255805015564 48.732997894287 214 214 214
5.485264301300 10.439002990723 48.835998535156 175 175 175
5.551571369171 10.380558013916 48.792999267578 216 216 216
5.551571369171 10.380558013916 48.731998443604 210 210 210
5.477402210236 10.563755989075 48.756996154785 144 144 144
5.539778709412 10.567687034607 48.730998992920 60 60 60
6.017800807953 5.963637351990 48.621997833252 188 188 188
6.017800807953 5.963637351990 48.683998107910 183 183 183
6.013869762421 6.026013374329 48.746997833252 188 188 188
6.017800807953 5.963637351990 48.803997039795 188 188 188
6.013869762421 6.026013374329 48.865997314453 53 53 53
6.009938716888 6.088389873505 48.573997497559 94 94 94
6.009938716888 6.088389873505 48.622997283936 186 186 186
6.009938716888 6.088389873505 48.683998107910 188 188 188
6.009938716888 6.088389873505 48.743999481201 185 185 185
6.009938716888 6.088389873505 48.805000305176 190 190 190
6.009938716888 6.088389873505 48.861999511719 187 187 187
6.002076625824 6.213142395020 48.614997863770 158 158 158
6.002076625824 6.213142395020 48.681999206543 188 188 188
6.002076625824 6.213142395020 48.742996215820 186 186 186
6.002076625824 6.213142395020 48.799999237061 187 187 187
5.994215011597 6.337894916534 48.622997283936 26 26 26
5.994215011597 6.337894916534 48.678997039795 188 188 188
5.994215011597 6.337894916534 48.736999511719 188 188 188
5.994215011597 6.337894916534 48.800998687744 185 185 185
5.335593223572 5.858019828796 48.698997497559 70 70 70
5.335593223572 5.858019828796 48.760997772217 65 65 65
5.986352920532 6.462647438049 48.618999481201 64 64 64
5.986352920532 6.462647438049 48.682998657227 187 187 187
5.986352920532 6.462647438049 48.745998382568 123 123 123
5.986352920532 6.462647438049 48.803997039795 185 185 185
5.323800086975 6.045148849487 48.630996704102 168 168 168
5.323800086975 6.045148849487 48.696998596191 181 181 181
5.327731132507 5.982772350311 48.763996124268 183 183 183
5.327731132507 5.982772350311 48.830997467041 185 185 185
5.978490829468 6.587399959564 48.626998901367 92 92 92
5.978490829468 6.587399959564 48.685997009277 189 189 189
5.978490829468 6.587399959564 48.746997833252 188 188 188
5.978490829468 6.587399959564 48.806999206543 187 187 187
5.378314018250 6.173832416534 48.631996154785 131 131 131
5.378314018250 6.173832416534 48.698997497559 188 188 188
5.315937995911 6.169901371002 48.761997222900 190 190 190
5.315937995911 6.169901371002 48.831996917725 189 189 189
5.853738307953 6.579537868500 48.501998901367 96 96 96
5.853738307953 6.579537868500 48.565998077393 193 193 193
5.970628738403 6.712152481079 48.687999725342 156 156 156
5.974559783936 6.649775981903 48.749996185303 160 160 160
5.970628738403 6.712152481079 48.805999755859 183 183 183
5.791362285614 6.575606822968 48.808998107910 163 163 163
5.791362285614 6.575606822968 48.859996795654 171 171 171
5.253561496735 6.165970325470 48.752998352051 147 147 147
5.732916831970 6.509299755096 48.966999053955 128 128 128
5.783500194550 6.700359821320 48.496997833252 147 147 147
5.845876216888 6.704290390015 48.578998565674 102 102 102
5.966697692871 6.774528503418 48.688999176025 150 150 150
5.966697692871 6.774528503418 48.747997283936 153 153 153
5.966697692871 6.774528503418 48.807998657227 175 175 175
5.845876216888 6.704290390015 48.812999725342 149 149 149
5.845876216888 6.704290390015 48.871997833252 159 159 159
5.783500194550 6.700359821320 48.930999755859 156 156 156
5.787431240082 6.637982845306 48.984996795654 110 110 110
5.717192649841 6.758804798126 48.064998626709 100 100 100
5.717192649841 6.758804798126 48.128997802734 100 100 100
5.717192649841 6.758804798126 48.195999145508 93 93 93
5.717192649841 6.758804798126 48.265998840332 103 103 103
5.717192649841 6.758804798126 48.331996917725 101 101 101
5.717192649841 6.758804798126 48.398998260498 88 88 88
5.838014125824 6.829042911530 48.498996734619 153 153 153
5.900390625000 6.832973957062 48.585998535156 119 119 119
5.958836078644 6.899281024933 48.689998626709 150 150 150
5.958836078644 6.899281024933 48.748996734619 150 150 150
5.958836078644 6.899281024933 48.808998107910 173 173 173
5.838014125824 6.829042911530 48.814998626709 129 129 129
