12.587162017822 12.775817871094 2.821990966797 183 183 183
12.559612274170 12.761064529419 2.866989135742 187 187 187
12.555924415588 12.767951965332 2.914001464844 182 182 182
12.555924415588 12.767951965332 2.960998535156 180 180 180
12.559612274170 12.761064529419 3.006988525391 183 183 183
12.563301086426 12.754177093506 3.052001953125 178 178 178
12.566987991333 12.747289657593 3.097991943359 178 178 178
12.563301086426 12.754177093506 3.144989013672 175 175 175
12.559612274170 12.761064529419 3.192001342773 173 173 173
12.559612274170 12.761064529419 3.237991333008 172 172 172
12.563301086426 12.754177093506 3.282989501953 170 170 170
12.559612274170 12.761064529419 3.330993652344 170 170 170
12.563301086426 12.754177093506 3.375991821289 170 170 170
12.566987991333 12.747289657593 3.420989990234 168 168 168
12.563301086426 12.754177093506 3.468002319336 168 168 168
12.535751342773 12.739425659180 3.513000488281 168 168 168
12.535751342773 12.739425659180 3.558990478516 168 168 168
12.563301086426 12.754177093506 3.606002807617 161 161 161
12.532063484192 12.746313095093 3.651000976563 163 163 163
12.532063484192 12.746313095093 3.696990966797 162 162 162
12.535751342773 12.739425659180 3.741989135742 165 165 165
12.543127059937 12.725650787354 3.787002563477 187 187 187
12.535751342773 12.739425659180 3.833999633789 170 170 170
12.543127059937 12.725650787354 3.878997802734 176 176 176
12.535751342773 12.739425659180 3.925994873047 158 158 158
12.552236557007 12.774837493896 3.972000122070 163 163 163
12.555924415588 12.767951965332 4.016998291016 183 183 183
12.532063484192 12.746313095093 4.062988281250 167 167 167
12.552236557007 12.774837493896 4.108993530273 162 162 162
12.548547744751 12.781726837158 4.153991699219 141 141 141
12.504514694214 12.731559753418 4.199996948242 124 124 124
12.508203506470 12.724672317505 4.246002197266 114 114 114
12.515579223633 12.710899353027 4.291992187500 108 108 108
12.515579223633 12.710899353027 4.337997436523 82 82 82
12.528375625610 12.753200531006 4.382995605469 25 25 25
12.520999908447 12.766973495483 4.886001586914 131 131 131
12.524687767029 12.760086059570 4.932998657227 170 170 170
12.520999908447 12.766973495483 4.977996826172 136 136 136
12.524687767029 12.760086059570 5.026000976563 143 143 143
12.528375625610 12.753200531006 5.071990966797 128 128 128
12.528375625610 12.753200531006 5.118988037109 138 138 138
12.528375625610 12.753200531006 5.166000366211 144 144 144
12.517311096191 12.773860931396 5.208999633789 70 70 70
12.524687767029 12.760086059570 5.539001464844 68 68 68
12.524687767029 12.760086059570 5.585998535156 64 64 64
12.407339096069 12.582040786743 5.675003051758 104 104 104
12.520999908447 12.766973495483 5.677993774414 110 110 110
12.530108451843 12.816162109375 5.715988159180 73 73 73
12.570676803589 12.740402221680 2.144989013672 143 143 143
12.278258323669 12.823093414307 3.895996093750 13 13 13
12.351573944092 12.950973510742 3.947998046875 13 13 13
12.391918182373 13.008026123047 3.994995117188 43 43 43
12.384542465210 13.021800994873 4.041992187500 86 86 86
12.388231277466 13.014913558960 4.086990356445 86 86 86
12.388231277466 13.014913558960 4.132995605469 87 87 87
12.391918182373 13.008026123047 4.179000854492 81 81 81
12.391918182373 13.008026123047 4.224990844727 85 85 85
12.368058204651 12.986387252808 4.270996093750 85 85 85
12.340509414673 12.971633911133 4.317001342773 68 68 68
12.514688491821 13.242147445679 4.667999267578 100 100 100
12.538549423218 13.263786315918 4.710998535156 113 113 113
12.538549423218 13.263786315918 4.755996704102 151 151 151
12.514688491821 13.242147445679 4.800003051758 164 164 164
12.538549423218 13.263786315918 4.843994140625 92 92 92
12.490827560425 13.220508575439 5.252990722656 64 64 64
12.511001586914 13.249034881592 5.294998168945 135 135 135
12.511001586914 13.249034881592 5.340988159180 124 124 124
12.511001586914 13.249034881592 5.386001586914 111 111 111
12.490827560425 13.220508575439 5.434997558594 66 66 66
12.563214302063 12.257852554321 5.373001098633 217 217 217
12.566902160645 12.250965118408 5.323989868164 241 241 241
12.566902160645 12.250965118408 5.276000976563 244 244 244
12.566902160645 12.250965118408 5.225997924805 223 223 223
12.566902160645 12.250965118408 5.179000854492 246 246 246
12.566902160645 12.250965118408 5.128997802734 147 147 147
12.566902160645 12.250965118408 4.888992309570 224 224 224
12.531976699829 12.249988555908 4.840988159180 252 252 252
12.531976699829 12.249988555908 4.792999267578 255 255 255
12.563214302063 12.257852554321 4.743988037109 254 254 254
12.531976699829 12.249988555908 4.696990966797 7 7 7
12.563214302063 12.257852554321 4.647994995117 208 208 208
12.674919128418 12.512636184692 5.735992431641 16 16 16
12.748456954956 12.507703781128 5.677993774414 96 96 96
12.436843872070 12.526943206787 5.684997558594 91 91 91
12.605070114136 12.510681152344 5.603988647461 16 16 16
12.632617950439 12.525432586670 5.552993774414 57 57 57
12.545305252075 12.522989273071 5.229995727539 215 215 215
12.545305252075 12.522989273071 5.182998657227 250 250 250
12.545305252075 12.522989273071 5.134994506836 248 248 248
12.545305252075 12.522989273071 5.086990356445 254 254 254
12.548994064331 12.516101837158 5.039001464844 251 251 251
12.545305252075 12.522989273071 4.992996215820 248 248 248
12.545305252075 12.522989273071 4.944992065430 245 245 245
12.510381698608 12.522010803223 4.897994995117 254 254 254
12.545305252075 12.522989273071 4.849990844727 249 249 249
12.510381698608 12.522010803223 4.802993774414 78 78 78
12.366992950439 12.524988174438 4.334991455078 78 78 78
12.363306045532 12.531875610352 4.287002563477 77 77 77
12.390853881836 12.546627044678 4.238998413086 70 70 70
12.436843872070 12.526943206787 4.190994262695 81 81 81
12.433155059814 12.533830642700 4.142990112305 81 81 81
12.433155059814 12.533830642700 4.095001220703 86 86 86
12.425779342651 12.547605514526 4.047988891602 155 155 155
12.425779342651 12.547605514526 4.000000000000 152 152 152
12.433155059814 12.533830642700 3.953002929688 138 138 138
12.436843872070 12.526943206787 3.904998779297 103 103 103
12.436843872070 12.526943206787 3.858001708984 131 131 131
12.433155059814 12.533830642700 3.808990478516 85 85 85
12.394542694092 12.539739608765 3.759994506836 34 34 34
12.688248634338 12.785636901855 5.722991943359 24 24 24
12.611022949219 12.797456741333 5.692001342773 102 102 102
12.467634201050 12.800432205200 5.677001953125 91 91 91
12.684560775757 12.792524337769 5.585998535156 15 15 15
12.537484169006 12.802387237549 5.233001708984 206 206 206
12.541172027588 12.795501708984 5.186996459961 236 236 236
12.537484169006 12.802387237549 5.138992309570 238 238 238
12.537484169006 12.802387237549 5.091995239258 243 243 243
12.544860839844 12.788612365723 5.043991088867 249 249 249
12.544860839844 12.788612365723 4.996994018555 237 237 237
12.544860839844 12.788612365723 4.949996948242 232 232 232
12.544860839844 12.788612365723 4.902999877930 227 227 227
12.544860839844 12.788612365723 4.856994628906 237 237 237
12.355484008789 12.811273574829 4.352996826172 75 75 75
12.386720657349 12.819139480591 4.304992675781 80 80 80
12.386720657349 12.819139480591 4.257995605469 87 87 87
12.421646118164 12.820116043091 4.210998535156 76 76 76
12.572410583496 12.803365707397 4.162994384766 161 161 161
12.463947296143 12.807319641113 4.116989135742 139 139 139
12.533796310425 12.809274673462 4.070999145508 123 123 123
12.533796310425 12.809274673462 4.024993896484 152 152 152
12.572410583496 12.803365707397 3.978988647461 172 172 172
12.421646118164 12.820116043091 3.929000854492 63 63 63
12.425333976746 12.813228607178 3.882995605469 71 71 71
12.417957305908 12.827003479004 3.834991455078 74 74 74
12.417957305908 12.827003479004 3.789001464844 75 75 75
12.417957305908 12.827003479004 3.741989135742 58 58 58
12.425333976746 12.813228607178 3.694992065430 42 42 42
12.677185058594 12.806297302246 2.129989624023 60 60 60
12.526420593262 12.823049545288 2.032989501953 40 40 40
12.565033912659 12.817140579224 1.998992919922 245 245 245
12.529663085938 13.081787109375 5.427993774414 138 138 138
12.537039756775 13.068012237549 5.377990722656 225 225 225
12.529663085938 13.081787109375 5.332000732422 229 229 229
12.529663085938 13.081787109375 5.285995483398 226 226 226
12.529663085938 13.081787109375 5.240997314453 203 203 203
12.529663085938 13.081787109375 5.192993164063 235 235 235
12.529663085938 13.081787109375 5.149002075195 56 56 56
12.525976181030 13.088674545288 4.964996337891 84 84 84
12.529663085938 13.081787109375 4.917999267578 6 6 6
12.529663085938 13.081787109375 4.871002197266 203 203 203
12.529663085938 13.081787109375 4.825988769531 254 254 254
12.529663085938 13.081787109375 4.779998779297 8 8 8
12.529663085938 13.081787109375 4.733993530273 11 11 11
12.560455322266 13.355276107788 4.795989990234 13 13 13
12.215561866760 12.940176010132 4.235000610352 29 29 29
12.434665679932 12.729604721069 3.700988769531 30 30 30
12.399740219116 12.728628158569 3.748001098633 31 31 31
12.430976867676 12.736492156982 3.794998168945 60 60 60
12.454837799072 12.758132934570 3.843002319336 62 62 62
12.447462081909 12.771905899048 3.889999389648 50 50 50
12.427289009094 12.743379592896 3.934997558594 28 28 28
12.407115936279 12.714853286743 3.979995727539 25 25 25
12.451149940491 12.765018463135 4.028991699219 105 105 105
12.454837799072 12.758132934570 4.074996948242 83 83 83
12.403429031372 12.721740722656 4.119995117188 44 44 44
12.434665679932 12.729604721069 4.166992187500 84 84 84
12.399740219116 12.728628158569 4.213989257813 74 74 74
12.414492607117 12.701078414917 4.259994506836 64 64 64
12.390631675720 12.679439544678 4.306991577148 88 88 88
12.386943817139 12.686325073242 4.353988647461 60 60 60
12.390631675720 12.679439544678 4.401000976563 22 22 22
12.561122894287 12.956840515137 4.800994873047 16 16 16
12.564811706543 12.949951171875 4.847000122070 133 133 133
12.540950775146 12.928312301636 4.893997192383 154 154 154
12.564811706543 12.949951171875 4.937988281250 156 156 156
12.540950775146 12.928312301636 4.983993530273 176 176 176
12.564811706543 12.949951171875 5.028991699219 108 108 108
12.520777702332 12.899787902832 5.125000000000 93 93 93
12.544638633728 12.921424865723 5.168991088867 143 143 143
12.544638633728 12.921424865723 5.214996337891 164 164 164
12.540950775146 12.928312301636 5.259994506836 130 130 130
12.520777702332 12.899787902832 5.308990478516 124 124 124
12.540950775146 12.928312301636 5.349990844727 107 107 107
12.427289009094 12.743379592896 5.718002319336 37 37 37
12.712331771851 12.674463272095 2.729995727539 12 12 12
12.712331771851 12.674463272095 2.778991699219 15 15 15
12.739881515503 12.689216613770 2.828002929688 17 17 17
12.712331771851 12.674463272095 2.871994018555 20 20 20
12.712331771851 12.674463272095 2.916000366211 17 17 17
12.712331771851 12.674463272095 2.963989257813 23 23 23
12.708643913269 12.681350708008 3.009002685547 21 21 21
12.739881515503 12.689216613770 3.057998657227 25 25 25
12.712331771851 12.674463272095 3.099990844727 30 30 30
12.708643913269 12.681350708008 3.147994995117 30 30 30
12.708643913269 12.681350708008 3.192993164063 28 28 28
12.704956054688 12.688238143921 3.239990234375 28 28 28
12.708643913269 12.681350708008 3.284988403320 36 36 36
12.712331771851 12.674463272095 3.332000732422 45 45 45
12.708643913269 12.681350708008 3.375991821289 41 41 41
12.708643913269 12.681350708008 3.421997070313 42 42 42
12.712331771851 12.674463272095 3.465988159180 40 40 40
12.712331771851 12.674463272095 3.511993408203 46 46 46
12.712331771851 12.674463272095 3.556991577148 50 50 50
12.704956054688 12.688238143921 3.603988647461 56 56 56
12.712331771851 12.674463272095 3.647994995117 61 61 61
12.712331771851 12.674463272095 3.692993164063 65 65 65
12.712331771851 12.674463272095 3.737991333008 67 67 67
12.712331771851 12.674463272095 3.782989501953 72 72 72
12.712331771851 12.674463272095 3.828994750977 75 75 75
12.712331771851 12.674463272095 3.873992919922 73 73 73
12.704956054688 12.688238143921 3.919998168945 68 68 68
12.712331771851 12.674463272095 3.963989257813 70 70 70
12.712331771851 12.674463272095 4.009002685547 81 81 81
12.712331771851 12.674463272095 4.054000854492 86 86 86
12.712331771851 12.674463272095 4.098999023438 76 76 76
12.712331771851 12.674463272095 4.143997192383 79 79 79
12.712331771851 12.674463272095 4.188995361328 74 74 74
12.712331771851 12.674463272095 4.233993530273 84 84 84
12.712331771851 12.674463272095 4.279998779297 83 83 83
12.712331771851 12.674463272095 4.323989868164 82 82 82
12.712331771851 12.674463272095 4.369995117188 79 79 79
12.712331771851 12.674463272095 4.414993286133 87 87 87
12.712331771851 12.674463272095 4.459991455078 87 87 87
12.712331771851 12.674463272095 4.503997802734 92 92 92
12.712331771851 12.674463272095 4.550003051758 92 92 92
12.712331771851 12.674463272095 4.595001220703 95 95 95
12.688470840454 12.652824401855 4.640991210938 89 89 89
12.692159652710 12.645936965942 4.685989379883 92 92 92
12.688470840454 12.652824401855 4.731002807617 88 88 88
12.671986579895 12.617410659790 4.778991699219 125 125 125
12.679363250732 12.603637695313 4.825988769531 130 130 130
12.675674438477 12.610523223877 4.871002197266 125 125 125
12.679363250732 12.603637695313 4.917999267578 129 129 129
12.675674438477 12.610523223877 4.962997436523 130 130 130
12.675674438477 12.610523223877 5.007995605469 120 120 120
12.688470840454 12.652824401855 5.048995971680 95 95 95
12.675674438477 12.610523223877 5.099990844727 128 128 128
12.671986579895 12.617410659790 5.143997192383 123 123 123
12.675674438477 12.610523223877 5.192001342773 124 124 124
12.671986579895 12.617410659790 5.236999511719 123 123 123
12.692159652710 12.645936965942 5.281997680664 118 118 118
12.692159652710 12.645936965942 5.324996948242 100 100 100
12.692159652710 12.645936965942 5.371002197266 101 101 101
12.692159652710 12.645936965942 5.416992187500 98 98 98
12.692159652710 12.645936965942 5.463989257813 97 97 97
12.692159652710 12.645936965942 5.509994506836 87 87 87
12.692159652710 12.645936965942 5.555999755859 89 89 89
12.739881515503 12.689216613770 5.593002319336 109 109 109
12.708643913269 12.681350708008 5.642990112305 91 91 91
12.692159652710 12.645936965942 5.695999145508 107 107 107
12.745302200317 12.745290756226 5.720993041992 112 112 112
12.739881515503 12.689216613770 5.778991699219 91 91 91
12.549837112427 13.110313415527 5.502990722656 62 62 62
12.525976181030 13.088674545288 5.463989257813 182 182 182
12.522287368774 13.095561981201 5.425003051758 195 195 195
12.525976181030 13.088674545288 5.384994506836 195 195 195
12.525976181030 13.088674545288 5.341995239258 198 198 198
12.525976181030 13.088674545288 5.304000854492 187 187 187
12.525976181030 13.088674545288 5.263000488281 170 170 170
12.525976181030 13.088674545288 4.983001708984 30 30 30
12.525976181030 13.088674545288 4.938995361328 180 180 180
12.549837112427 13.110313415527 4.899002075195 207 207 207
12.549837112427 13.110313415527 4.858993530273 187 187 187
12.525976181030 13.088674545288 4.819992065430 171 171 171
12.525976181030 13.088674545288 4.781997680664 177 177 177
12.525976181030 13.088674545288 4.740997314453 155 155 155
12.360681533813 13.000162124634 4.319000244141 70 70 70
12.388231277466 13.014913558960 4.277999877930 85 85 85
12.388231277466 13.014913558960 4.236999511719 85 85 85
12.391918182373 13.008026123047 4.196990966797 91 91 91
12.388231277466 13.014913558960 4.156997680664 93 93 93
12.388231277466 13.014913558960 4.116989135742 74 74 74
12.642259597778 12.805320739746 5.737991333008 98 98 98
12.421868324280 12.687303543091 5.751998901367 115 115 115
12.394319534302 12.672552108765 5.722991943359 111 111 111
12.587162017822 12.775817871094 5.626998901367 41 41 41
12.566987991333 12.747289657593 5.593994140625 24 24 24
12.539440155029 12.732538223267 5.263992309570 150 150 150
12.539440155029 12.732538223267 5.223999023438 187 187 187
12.543127059937 12.725650787354 5.182998657227 178 178 178
12.535751342773 12.739425659180 5.138992309570 171 171 171
12.539440155029 12.732538223267 5.098999023438 177 177 177
12.566987991333 12.747289657593 5.054992675781 173 173 173
12.535751342773 12.739425659180 5.015991210938 179 179 179
12.535751342773 12.739425659180 4.974990844727 189 189 189
12.539440155029 12.732538223267 4.934997558594 171 171 171
12.374147415161 12.644025802612 4.379989624023 81 81 81
12.394319534302 12.672552108765 4.337997436523 87 87 87
12.429244995117 12.673528671265 4.295989990234 92 92 92
12.460481643677 12.681394577026 4.253997802734 84 84 84
12.570676803589 12.740402221680 4.208999633789 148 148 148
12.543127059937 12.725650787354 4.169998168945 160 160 160
12.543127059937 12.725650787354 4.129989624023 137 137 137
12.539440155029 12.732538223267 4.089996337891 153 153 153
12.539440155029 12.732538223267 4.050003051758 175 175 175
12.570676803589 12.740402221680 4.009994506836 168 168 168
12.543127059937 12.725650787354 3.970001220703 163 163 163
12.539440155029 12.732538223267 3.929992675781 176 176 176
12.539440155029 12.732538223267 3.889999389648 196 196 196
12.570676803589 12.740402221680 3.849990844727 208 208 208
12.543127059937 12.725650787354 3.809997558594 192 192 192
12.539440155029 12.732538223267 3.769989013672 178 178 178
12.543127059937 12.725650787354 3.729995727539 177 177 177
12.539440155029 12.732538223267 3.690994262695 167 167 167
12.539440155029 12.732538223267 3.651000976563 172 172 172
12.539440155029 12.732538223267 3.610000610352 168 168 168
12.539440155029 12.732538223267 3.569992065430 164 164 164
12.543127059937 12.725650787354 3.529998779297 168 168 168
12.543127059937 12.725650787354 3.489990234375 158 158 158
12.570676803589 12.740402221680 3.450988769531 163 163 163
12.543127059937 12.725650787354 3.409988403320 167 167 167
12.570676803589 12.740402221680 3.371002197266 162 162 162
12.570676803589 12.740402221680 3.330001831055 163 163 163
12.543127059937 12.725650787354 3.289001464844 159 159 159
12.543127059937 12.725650787354 3.248992919922 161 161 161
12.570676803589 12.740402221680 3.209991455078 158 158 158
12.539440155029 12.732538223267 3.168991088867 161 161 161
12.543127059937 12.725650787354 3.127990722656 163 163 163
12.570676803589 12.740402221680 3.088989257813 161 161 161
12.570676803589 12.740402221680 3.047988891602 164 164 164
12.570676803589 12.740402221680 3.007995605469 164 164 164
12.570676803589 12.740402221680 2.968002319336 158 158 158
12.570676803589 12.740402221680 2.927993774414 157 157 157
12.570676803589 12.740402221680 2.886993408203 160 160 160
12.570676803589 12.740402221680 2.847000122070 157 157 157
12.546815872192 12.718763351440 2.800994873047 136 136 136
12.598226547241 12.755155563354 2.358001708984 145 145 145
12.629463195801 12.763019561768 2.319992065430 145 145 145
12.629463195801 12.763019561768 2.277999877930 143 143 143
12.629463195801 12.763019561768 2.235992431641 137 137 137
12.629463195801 12.763019561768 2.194000244141 134 134 134
12.625774383545 12.769906997681 2.152999877930 138 138 138
12.629463195801 12.763019561768 2.110000610352 143 143 143
12.550503730774 12.711875915527 2.045989990234 29 29 29
12.601914405823 12.748268127441 2.016998291016 232 232 232
12.625774383545 12.769906997681 1.983993530273 206 206 206
12.546815872192 12.718763351440 2.382995605469 113 113 113
12.752144813538 12.500816345215 5.722991943359 58 58 58
12.607025146484 12.440830230713 5.720993041992 90 90 90
12.551927566528 12.411327362061 5.688995361328 54 54 54
12.559303283691 12.397552490234 5.307998657227 170 170 170
12.559303283691 12.397552490234 5.265991210938 170 170 170
12.528066635132 12.389686584473 5.223999023438 170 170 170
12.555615425110 12.404439926147 5.180999755859 171 171 171
12.555615425110 12.404439926147 5.138992309570 171 171 171
12.555615425110 12.404439926147 5.097000122070 120 120 120
12.528066635132 12.389686584473 5.056991577148 58 58 58
12.531754493713 12.382801055908 5.015991210938 175 175 175
12.531754493713 12.382801055908 4.973999023438 177 177 177
12.559303283691 12.397552490234 4.930999755859 176 176 176
12.528066635132 12.389686584473 4.889999389648 176 176 176
12.528066635132 12.389686584473 4.847991943359 177 177 177
12.531754493713 12.382801055908 4.808990478516 163 163 163
12.394009590149 12.309040069580 4.277999877930 47 47 47
12.397697448730 12.302152633667 4.235992431641 72 72 72
12.394009590149 12.309040069580 4.194000244141 82 82 82
12.397697448730 12.302152633667 4.151992797852 89 89 89
12.421558380127 12.323791503906 4.110000610352 62 62 62
12.421558380127 12.323791503906 4.067993164063 15 15 15
12.569079399109 12.048303604126 5.399993896484 107 107 107
12.537842750549 12.040439605713 5.358001708984 146 146 146
12.537842750549 12.040439605713 5.315002441406 170 170 170
12.569079399109 12.048303604126 5.270996093750 62 62 62
12.541530609131 12.033550262451 4.802993774414 136 136 136
12.545218467712 12.026664733887 4.761001586914 46 46 46
12.492783546448 13.150659561157 5.541992187500 96 96 96
12.500160217285 13.136884689331 5.490997314453 224 224 224
12.500160217285 13.136884689331 5.445999145508 228 228 228
12.500160217285 13.136884689331 5.399002075195 231 231 231
12.500160217285 13.136884689331 5.352996826172 233 233 233
12.531396865845 13.144748687744 5.305999755859 229 229 229
12.492783546448 13.150659561157 5.263000488281 17 17 17
12.531396865845 13.144748687744 4.940994262695 193 193 193
12.531396865845 13.144748687744 4.894989013672 245 245 245
12.531396865845 13.144748687744 4.849990844727 197 197 197
12.531396865845 13.144748687744 4.804000854492 3 3 3
12.531396865845 13.144748687744 4.759002685547 15 15 15
12.531396865845 13.144748687744 4.713989257813 245 245 245
12.507980346680 12.857486724854 5.350997924805 203 203 203
12.507980346680 12.857486724854 5.302993774414 231 231 231
12.507980346680 12.857486724854 5.255996704102 235 235 235
12.539217948914 12.865350723267 5.208999633789 223 223 223
12.507980346680 12.857486724854 5.164001464844 240 240 240
12.507980346680 12.857486724854 5.116989135742 217 217 217
12.539217948914 12.865350723267 5.069000244141 241 241 241
12.507980346680 12.857486724854 5.024002075195 213 213 213
12.539217948914 12.865350723267 4.975997924805 239 239 239
12.539217948914 12.865350723267 4.929992675781 203 203 203
12.539217948914 12.865350723267 4.884002685547 243 243 243
12.507980346680 12.857486724854 4.837997436523 187 187 187
12.357216835022 12.874237060547 4.381988525391 83 83 83
12.357216835022 12.874237060547 4.334991455078 89 89 89
12.360904693604 12.867349624634 4.287994384766 98 98 98
12.403205871582 12.854553222656 4.240997314453 94 94 94
12.395830154419 12.868328094482 4.194992065430 109 109 109
12.395830154419 12.868328094482 4.147994995117 101 101 101
12.395830154419 12.868328094482 4.101989746094 87 87 87
12.360904693604 12.867349624634 4.054992675781 67 67 67
12.360904693604 12.867349624634 4.007995605469 64 64 64
12.395830154419 12.868328094482 3.960998535156 61 61 61
12.399517059326 12.861438751221 3.914993286133 64 64 64
12.395830154419 12.868328094482 3.867996215820 36 36 36
12.651813507080 12.588884353638 5.847991943359 9 9 9
12.731749534607 12.605102539063 5.789993286133 101 101 101
12.774049758911 12.592306137085 5.729995727539 113 113 113
12.659189224243 12.575109481812 5.703002929688 138 138 138
12.707888603210 12.583463668823 5.649993896484 101 101 101
12.686738967896 12.589862823486 5.604995727539 133 133 133
12.651813507080 12.588884353638 5.565002441406 102 102 102
12.651813507080 12.588884353638 5.517990112305 161 161 161
12.659189224243 12.575109481812 5.468002319336 159 159 159
12.651813507080 12.588884353638 5.420989990234 157 157 157
12.651813507080 12.588884353638 5.373992919922 158 158 158
12.651813507080 12.588884353638 5.328002929688 151 151 151
12.659189224243 12.575109481812 5.279998779297 155 155 155
12.651813507080 12.588884353638 5.233993530273 152 152 152
12.651813507080 12.588884353638 5.188995361328 157 157 157
12.620576858521 12.581020355225 5.142990112305 155 155 155
12.620576858521 12.581020355225 5.095993041992 158 158 158
12.616888046265 12.587905883789 5.052001953125 164 164 164
12.616888046265 12.587905883789 5.004989624023 174 174 174
12.589339256287 12.573154449463 4.959991455078 180 180 180
12.589339256287 12.573154449463 4.912994384766 186 186 186
12.589339256287 12.573154449463 4.866989135742 183 183 183
12.581962585449 12.586929321289 4.820999145508 181 181 181
12.589339256287 12.573154449463 4.774002075195 176 176 176
12.581962585449 12.586929321289 4.727996826172 167 167 167
12.589339256287 12.573154449463 4.680999755859 156 156 156
12.589339256287 12.573154449463 4.634994506836 154 154 154
12.581962585449 12.586929321289 4.587997436523 145 145 145
12.589339256287 12.573154449463 4.541992187500 147 147 147
12.581962585449 12.586929321289 4.496002197266 145 145 145
12.578275680542 12.593816757202 4.449996948242 144 144 144
12.581962585449 12.586929321289 4.402999877930 145 145 145
12.543350219727 12.592838287354 4.356994628906 149 149 149
12.547039031982 12.585950851440 4.310989379883 160 160 160
12.547039031982 12.585950851440 4.263992309570 175 175 175
12.547039031982 12.585950851440 4.218002319336 187 187 187
12.547039031982 12.585950851440 4.170989990234 242 242 242
12.543350219727 12.592838287354 4.123992919922 241 241 241
12.578275680542 12.593816757202 4.078002929688 214 214 214
12.581962585449 12.586929321289 4.031997680664 222 222 222
12.547039031982 12.585950851440 3.985000610352 164 164 164
12.547039031982 12.585950851440 3.937988281250 183 183 183
12.547039031982 12.585950851440 3.890991210938 173 173 173
12.519489288330 12.571199417114 3.843994140625 148 148 148
12.512113571167 12.584974288940 3.796997070313 132 132 132
12.473501205444 12.590883255005 3.746994018555 108 108 108
12.477188110352 12.583995819092 3.700988769531 12 12 12
12.526333808899 12.326725006104 5.341995239258 243 243 243
12.533710479736 12.312950134277 5.292999267578 248 248 248
12.526333808899 12.326725006104 5.244995117188 247 247 247
12.526333808899 12.326725006104 5.197998046875 248 248 248
12.533710479736 12.312950134277 5.147994995117 246 246 246
12.526333808899 12.326725006104 5.004989624023 219 219 219
12.526333808899 12.326725006104 4.957992553711 246 246 246
12.522645950317 12.333612442017 4.909988403320 247 247 247
12.526333808899 12.326725006104 4.861999511719 251 251 251
12.526333808899 12.326725006104 4.812988281250 251 251 251
12.526333808899 12.326725006104 4.764999389648 213 213 213
12.382946014404 12.329700469971 4.338989257813 35 35 35
12.379257202148 12.336589813232 4.291000366211 76 76 76
12.379257202148 12.336589813232 4.241989135742 78 78 78
12.382946014404 12.329700469971 4.194000244141 77 77 77
12.382946014404 12.329700469971 4.144989013672 78 78 78
12.382946014404 12.329700469971 4.097000122070 82 82 82
12.382946014404 12.329700469971 4.047988891602 30 30 30
12.530466079712 12.054212570190 5.434997558594 205 205 205
12.530466079712 12.054212570190 5.384994506836 242 242 242
12.530466079712 12.054212570190 5.335998535156 245 245 245
12.537842750549 12.040439605713 5.284988403320 239 239 239
12.502918243408 12.039461135864 4.847991943359 171 171 171
12.502918243408 12.039461135864 4.798995971680 248 248 248
12.534154891968 12.047325134277 4.750000000000 220 220 220
12.495319366455 12.186046600342 4.660995483398 95 95 95
12.495319366455 12.186046600342 4.708999633789 117 117 117
12.499006271362 12.179161071777 4.756988525391 124 124 124
12.495319366455 12.186046600342 4.804000854492 122 122 122
12.495319366455 12.186046600342 4.851989746094 123 123 123
12.519180297852 12.207687377930 4.899002075195 87 87 87
12.519180297852 12.207687377930 5.233993530273 119 119 119
12.519180297852 12.207687377930 5.282989501953 173 173 173
12.519180297852 12.207687377930 5.330993652344 143 143 143
12.519180297852 12.207687377930 5.379989624023 171 171 171
12.519180297852 12.207687377930 5.429000854492 122 122 122
12.693359375000 12.478199005127 5.709991455078 85 85 85
12.777738571167 12.585418701172 5.731002807617 17 17 17
12.513624191284 12.780748367310 2.102996826172 21 21 21
12.513624191284 12.780748367310 2.151000976563 15 15 15
12.392587661743 12.609590530396 3.733993530273 13 13 13
12.392587661743 12.609590530396 3.780990600586 83 83 83
12.372413635254 12.581062316895 3.826995849609 130 130 130
12.416447639465 12.631229400635 3.875991821289 52 52 52
12.396274566650 12.602703094482 3.921997070313 79 79 79
12.376102447510 12.574174880981 3.968002319336 44 44 44
12.486074447632 12.765996932983 4.020996093750 145 145 145
12.520999908447 12.766973495483 4.067001342773 123 123 123
12.486074447632 12.765996932983 4.111999511719 132 132 132
12.486074447632 12.765996932983 4.157989501953 129 129 129
12.520999908447 12.766973495483 4.203994750977 136 136 136
12.355929374695 12.545650482178 4.250000000000 67 67 67
12.355929374695 12.545650482178 4.297988891602 68 68 68
12.332069396973 12.524009704590 4.345001220703 75 75 75
12.335756301880 12.517122268677 4.392990112305 48 48 48
12.509935379028 12.787635803223 4.937988281250 128 128 128
12.489763259888 12.759109497070 4.985992431641 163 163 163
12.509935379028 12.787635803223 5.029998779297 145 145 145
12.489763259888 12.759109497070 5.078002929688 145 145 145
12.486074447632 12.765996932983 5.123992919922 120 120 120
12.489763259888 12.759109497070 5.171997070313 129 129 129
12.497138977051 12.745334625244 5.220001220703 139 139 139
12.489763259888 12.759109497070 5.263992309570 107 107 107
12.493450164795 12.752222061157 5.595001220703 59 59 59
12.489763259888 12.759109497070 5.639999389648 67 67 67
12.344865798950 12.566310882568 5.731002807617 106 106 106
12.493450164795 12.752222061157 5.737991333008 109 109 109
12.509935379028 12.787635803223 5.774993896484 79 79 79
12.533796310425 12.809274673462 2.207992553711 16 16 16
12.145935058594 12.805408477783 3.931991577148 19 19 19
12.239422798157 12.961814880371 4.220001220703 21 21 21
12.246799468994 12.948040008545 4.265991210938 17 17 17
12.382946014404 12.329700469971 4.078002929688 45 45 45
12.382946014404 12.329700469971 4.119995117188 69 69 69
12.382946014404 12.329700469971 4.162002563477 88 88 88
12.382946014404 12.329700469971 4.203002929688 79 79 79
12.382946014404 12.329700469971 4.244995117188 53 53 53
12.520690917969 12.403461456299 4.776000976563 138 138 138
12.520690917969 12.403461456299 4.815994262695 178 178 178
12.517002105713 12.410348892212 4.856994628906 179 179 179
12.517002105713 12.410348892212 4.899002075195 182 182 182
12.517002105713 12.410348892212 4.942001342773 181 181 181
12.517002105713 12.410348892212 4.981994628906 181 181 181
12.517002105713 12.410348892212 5.024002075195 93 93 93
12.517002105713 12.410348892212 5.106994628906 171 171 171
12.517002105713 12.410348892212 5.149002075195 176 176 176
12.544551849365 12.425102233887 5.190002441406 175 175 175
12.544551849365 12.425102233887 5.231994628906 173 173 173
12.517002105713 12.410348892212 5.274993896484 171 171 171
12.544551849365 12.425102233887 5.315994262695 139 139 139
12.572099685669 12.439853668213 5.688995361328 97 97 97
12.685983657837 12.491973876953 5.700988769531 72 72 72
12.408849716187 12.777814865112 3.699996948242 53 53 53
12.384988784790 12.756175994873 3.739990234375 64 64 64
12.416225433350 12.764041900635 3.780990600586 76 76 76
12.412536621094 12.770929336548 3.821990966797 73 73 73
12.408849716187 12.777814865112 3.861999511719 68 68 68
12.408849716187 12.777814865112 3.902999877930 55 55 55
12.384988784790 12.756175994873 3.942993164063 48 48 48
12.384988784790 12.756175994873 3.983993530273 55 55 55
12.416225433350 12.764041900635 4.024002075195 126 126 126
12.412536621094 12.770929336548 4.063995361328 108 108 108
12.440086364746 12.785680770874 4.104995727539 90 90 90
12.381299972534 12.763063430786 4.145996093750 74 74 74
12.384988784790 12.756175994873 4.186996459961 92 92 92
12.381299972534 12.763063430786 4.226989746094 81 81 81
12.353752136230 12.748310089111 4.268997192383 84 84 84
12.353752136230 12.748310089111 4.309997558594 102 102 102
12.353752136230 12.748310089111 4.350997924805 85 85 85
12.353752136230 12.748310089111 4.391998291016 60 60 60
12.519044876099 12.836822509766 4.860992431641 129 129 129
12.519044876099 12.836822509766 4.901992797852 193 193 193
12.519044876099 12.836822509766 4.942001342773 204 204 204
12.519044876099 12.836822509766 4.981994628906 181 181 181
12.519044876099 12.836822509766 5.022994995117 199 199 199
12.519044876099 12.836822509766 5.063995361328 177 177 177
12.491495132446 12.822071075439 5.108001708984 182 182 182
12.491495132446 12.822071075439 5.149002075195 184 184 184
12.519044876099 12.836822509766 5.187988281250 182 182 182
12.519044876099 12.836822509766 5.228988647461 185 185 185
12.491495132446 12.822071075439 5.272003173828 174 174 174
12.381299972534 12.763063430786 5.681991577148 32 32 32
12.436397552490 12.792568206787 5.709991455078 85 85 85
12.546594619751 12.851575851440 5.713989257813 29 29 29
12.507312774658 13.255922317505 4.709991455078 100 100 100
12.507312774658 13.255922317505 4.748992919922 155 155 155
12.531173706055 13.277561187744 4.787002563477 190 190 190
12.531173706055 13.277561187744 4.825988769531 191 191 191
12.507312774658 13.255922317505 4.865997314453 162 162 162
12.503624916077 13.262809753418 5.307998657227 103 103 103
12.503624916077 13.262809753418 5.345001220703 187 187 187
12.503624916077 13.262809753418 5.386993408203 176 176 176
12.503624916077 13.262809753418 5.427001953125 116 116 116
12.528511047363 12.124063491821 5.502990722656 88 88 88
12.528511047363 12.124063491821 5.453002929688 10 10 10
12.535886764526 12.110288619995 5.401992797852 5 5 5
12.532199859619 12.117176055908 5.351989746094 254 254 254
12.563436508179 12.125040054321 5.302001953125 243 243 243
12.563436508179 12.125040054321 5.252990722656 218 218 218
12.524823188782 12.130950927734 4.864990234375 216 216 216
12.521135330200 12.137836456299 4.817993164063 26 26 26
12.521135330200 12.137836456299 4.768997192383 29 29 29
12.521135330200 12.137836456299 4.720993041992 30 30 30
12.524823188782 12.130950927734 4.670989990234 237 237 237
12.498561859131 12.444786071777 5.700988769531 43 43 43
12.533487319946 12.445762634277 5.307998657227 248 248 248
12.533487319946 12.445762634277 5.259994506836 16 16 16
12.529799461365 12.452650070190 5.212997436523 25 25 25
12.533487319946 12.445762634277 5.164001464844 22 22 22
12.529799461365 12.452650070190 5.116989135742 29 29 29
12.533487319946 12.445762634277 5.069000244141 220 220 220
12.529799461365 12.452650070190 5.022003173828 10 10 10
12.522422790527 12.466424942017 4.974990844727 18 18 18
12.522422790527 12.466424942017 4.927001953125 26 26 26
12.529799461365 12.452650070190 4.878997802734 31 31 31
12.529799461365 12.452650070190 4.830001831055 244 244 244
12.365261077881 12.462024688721 4.360000610352 83 83 83
12.365261077881 12.462024688721 4.311996459961 85 85 85
12.392809867859 12.476776123047 4.263000488281 93 93 93
12.431423187256 12.470867156982 4.214996337891 98 98 98
12.431423187256 12.470867156982 4.167999267578 92 92 92
12.400186538696 12.463003158569 4.119995117188 90 90 90
12.400186538696 12.463003158569 4.071990966797 85 85 85
12.462659835815 12.478733062744 4.024993896484 98 98 98
12.462659835815 12.478733062744 3.976989746094 100 100 100
12.431423187256 12.470867156982 3.929000854492 151 151 151
12.431423187256 12.470867156982 3.880996704102 95 95 95
12.745302200317 12.745290756226 5.744995117188 93 93 93
12.451149940491 12.765018463135 5.754989624023 113 113 113
12.416225433350 12.764041900635 5.711990356445 92 92 92
12.671764373779 12.750223159790 5.618988037109 83 83 83
12.625774383545 12.769906997681 5.582000732422 17 17 17
12.629463195801 12.763019561768 5.486999511719 38 38 38
12.520999908447 12.766973495483 5.267990112305 229 229 229
12.520999908447 12.766973495483 5.220993041992 247 247 247
12.517311096191 12.773860931396 5.175003051758 247 247 247
12.520999908447 12.766973495483 5.127990722656 19 19 19
12.520999908447 12.766973495483 5.080993652344 22 22 22
12.520999908447 12.766973495483 5.033996582031 18 18 18
12.517311096191 12.773860931396 4.986999511719 239 239 239
12.517311096191 12.773860931396 4.940002441406 16 16 16
12.552236557007 12.774837493896 4.891998291016 163 163 163
12.362859725952 12.797498703003 4.386993408203 93 93 93
12.362859725952 12.797498703003 4.339996337891 94 94 94
12.362859725952 12.797498703003 4.292999267578 95 95 95
12.432709693909 12.799453735352 4.246002197266 93 93 93
12.548547744751 12.781726837158 4.198989868164 186 186 186
12.509935379028 12.787635803223 4.151992797852 149 149 149
12.541172027588 12.795501708984 4.106002807617 142 142 142
12.502559661865 12.801410675049 4.059997558594 167 167 167
12.544860839844 12.788612365723 4.014999389648 179 179 179
12.397785186768 12.798477172852 3.963989257813 79 79 79
12.421646118164 12.820116043091 3.916992187500 76 76 76
12.421646118164 12.820116043091 3.871002197266 87 87 87
12.421646118164 12.820116043091 3.823989868164 78 78 78
12.429021835327 12.806343078613 3.776992797852 79 79 79
12.429021835327 12.806343078613 3.729995727539 21 21 21
12.514911651611 13.109336853027 5.507995605469 103 103 103
12.518599510193 13.102447509766 5.458999633789 237 237 237
12.518599510193 13.102447509766 5.412002563477 229 229 229
12.511223793030 13.116222381592 5.366989135742 242 242 242
12.511223793030 13.116222381592 5.320999145508 207 207 207
12.511223793030 13.116222381592 5.274993896484 245 245 245
12.507535934448 13.123111724854 5.231002807617 102 102 102
12.511223793030 13.116222381592 4.953002929688 9 9 9
12.518599510193 13.102447509766 4.906997680664 230 230 230
12.518599510193 13.102447509766 4.861999511719 0 0 0
12.511223793030 13.116222381592 4.817001342773 35 35 35
12.511223793030 13.116222381592 4.770996093750 36 36 36
12.546148300171 13.117200851440 4.723999023438 215 215 215
12.498204231262 13.206733703613 4.694000244141 173 173 173
12.501892089844 13.199846267700 4.733993530273 183 183 183
12.501892089844 13.199846267700 4.772994995117 178 178 178
12.501892089844 13.199846267700 4.812988281250 190 190 190
12.501892089844 13.199846267700 4.851989746094 191 191 191
12.501892089844 13.199846267700 4.890991210938 173 173 173
12.474343299866 13.185094833374 5.253997802734 156 156 156
12.470655441284 13.191982269287 5.292999267578 196 196 196
12.474343299866 13.185094833374 5.333999633789 184 184 184
12.505580902100 13.192960739136 5.373001098633 188 188 188
12.474343299866 13.185094833374 5.416000366211 194 194 194
12.474343299866 13.185094833374 5.455993652344 189 189 189
12.505580902100 13.192960739136 5.494995117188 108 108 108
12.384988784790 12.756175994873 3.690994262695 68 68 68
12.381299972534 12.763063430786 3.731994628906 53 53 53
12.408849716187 12.777814865112 3.772003173828 76 76 76
12.408849716187 12.777814865112 3.812988281250 75 75 75
12.408849716187 12.777814865112 3.852996826172 51 51 51
12.412536621094 12.770929336548 3.893997192383 49 49 49
12.381299972534 12.763063430786 3.933990478516 54 54 54
12.384988784790 12.756175994873 3.974990844727 64 64 64
12.495183944702 12.815185546875 4.013992309570 152 152 152
12.467634201050 12.800432205200 4.054000854492 111 111 111
12.467634201050 12.800432205200 4.093994140625 113 113 113
12.467634201050 12.800432205200 4.134002685547 105 105 105
12.495183944702 12.815185546875 4.172988891602 146 146 146
12.357439041138 12.741424560547 4.218994140625 78 78 78
12.326202392578 12.733558654785 4.259994506836 78 78 78
12.329891204834 12.726673126221 4.302001953125 92 92 92
12.329891204834 12.726673126221 4.341995239258 83 83 83
12.329891204834 12.726673126221 4.382995605469 59 59 59
12.502559661865 12.801410675049 4.894989013672 166 166 166
12.502559661865 12.801410675049 4.935989379883 189 189 189
12.502559661865 12.801410675049 4.975997924805 184 184 184
12.502559661865 12.801410675049 5.016998291016 189 189 189
12.502559661865 12.801410675049 5.057998657227 175 175 175
12.502559661865 12.801410675049 5.099990844727 178 178 178
12.475010871887 12.786657333374 5.140991210938 185 185 185
12.475010871887 12.786657333374 5.182998657227 183 183 183
12.475010871887 12.786657333374 5.222991943359 186 186 186
12.502559661865 12.801410675049 5.263992309570 19 19 19
12.533796310425 12.809274673462 5.583999633789 64 64 64
12.333578109741 12.719785690308 5.677001953125 110 110 110
12.396052360535 12.735513687134 5.713989257813 108 108 108
12.502559661865 12.801410675049 5.718002319336 104 104 104
12.585206985474 12.845666885376 5.737991333008 53 53 53
12.364505767822 12.364137649536 4.076995849609 53 53 53
12.368193626404 12.357250213623 4.118988037109 70 70 70
12.368193626404 12.357250213623 4.160995483398 84 84 84
12.368193626404 12.357250213623 4.201995849609 71 71 71
12.371881484985 12.350362777710 4.243988037109 47 47 47
12.482077598572 12.409370422363 4.772994995117 177 177 177
12.485765457153 12.402484893799 4.815994262695 183 183 183
12.482077598572 12.409370422363 4.856002807617 183 183 183
12.485765457153 12.402484893799 4.899002075195 180 180 180
12.485765457153 12.402484893799 4.940994262695 183 183 183
12.482077598572 12.409370422363 4.979995727539 174 174 174
12.482077598572 12.409370422363 5.106002807617 171 171 171
12.513315200806 12.417236328125 5.147003173828 174 174 174
12.485765457153 12.402484893799 5.190994262695 173 173 173
12.517002105713 12.410348892212 5.231994628906 176 176 176
12.485765457153 12.402484893799 5.276000976563 170 170 170
12.517002105713 12.410348892212 5.315994262695 154 154 154
12.599649429321 12.454605102539 5.672988891602 58 58 58
12.485184669495 13.297245025635 5.405990600586 165 165 165
12.516421318054 13.305110931396 5.358001708984 231 231 231
12.516421318054 13.305110931396 5.312988281250 14 14 14
12.485184669495 13.297245025635 4.860992431641 26 26 26
12.485184669495 13.297245025635 4.815002441406 23 23 23
12.516421318054 13.305110931396 4.768997192383 236 236 236
12.523797988892 13.291336059570 4.722991943359 17 17 17
12.504070281982 12.997184753418 5.405990600586 132 132 132
12.504070281982 12.997184753418 5.358001708984 241 241 241
12.504070281982 12.997184753418 5.311996459961 246 246 246
12.504070281982 12.997184753418 5.263992309570 240 240 240
12.504070281982 12.997184753418 5.218994140625 213 213 213
12.504070281982 12.997184753418 5.172988891602 251 251 251
12.500382423401 13.004072189331 5.126998901367 85 85 85
12.511445999146 12.983409881592 5.031997680664 227 227 227
12.504070281982 12.997184753418 4.985992431641 250 250 250
12.504070281982 12.997184753418 4.940002441406 233 233 233
12.535306930542 13.005050659180 4.893997192383 240 240 240
12.535306930542 13.005050659180 4.847991943359 237 237 237
12.504070281982 12.997184753418 4.802993774414 0 0 0
12.353305816650 13.013935089111 4.347991943359 90 90 90
12.356994628906 13.007047653198 4.300994873047 104 104 104
12.356994628906 13.007047653198 4.254989624023 106 106 106
12.356994628906 13.007047653198 4.207992553711 111 111 111
12.356994628906 13.007047653198 4.162002563477 103 103 103
12.356994628906 13.007047653198 4.114990234375 102 102 102
12.356994628906 13.007047653198 4.069000244141 96 96 96
12.356994628906 13.007047653198 4.022003173828 72 72 72
12.673719406128 12.680374145508 5.804992675781 105 105 105
12.750945091248 12.668554306030 5.741989135742 119 119 119
12.673719406128 12.680374145508 5.708999633789 156 156 156
12.673719406128 12.680374145508 5.662002563477 121 121 121
12.708643913269 12.681350708008 5.610000610352 138 138 138
12.673719406128 12.680374145508 5.567993164063 123 123 123
12.638793945313 12.679395675659 5.530990600586 190 190 190
12.670030593872 12.687261581421 5.476989746094 200 200 200
12.670030593872 12.687261581421 5.430999755859 201 201 201
12.670030593872 12.687261581421 5.384994506836 202 202 202
12.670030593872 12.687261581421 5.336990356445 201 201 201
12.670030593872 12.687261581421 5.291000366211 203 203 203
12.670030593872 12.687261581421 5.243988037109 203 203 203
12.638793945313 12.679395675659 5.198989868164 205 205 205
12.670030593872 12.687261581421 5.151000976563 205 205 205
12.670030593872 12.687261581421 5.106002807617 211 211 211
12.670030593872 12.687261581421 5.058990478516 212 212 212
12.670030593872 12.687261581421 5.013000488281 211 211 211
12.670030593872 12.687261581421 4.965988159180 212 212 212
12.670030593872 12.687261581421 4.919998168945 215 215 215
12.670030593872 12.687261581421 4.873992919922 219 219 219
12.670030593872 12.687261581421 4.828002929688 220 220 220
12.670030593872 12.687261581421 4.781997680664 222 222 222
12.670030593872 12.687261581421 4.735992431641 228 228 228
12.670030593872 12.687261581421 4.690002441406 230 230 230
12.670030593872 12.687261581421 4.643997192383 229 229 229
12.670030593872 12.687261581421 4.597991943359 232 232 232
12.670030593872 12.687261581421 4.552993774414 230 230 230
12.673719406128 12.680374145508 4.506988525391 235 235 235
12.670030593872 12.687261581421 4.460998535156 234 234 234
12.670030593872 12.687261581421 4.414993286133 235 235 235
12.670030593872 12.687261581421 4.369995117188 235 235 235
12.670030593872 12.687261581421 4.323989868164 234 234 234
12.670030593872 12.687261581421 4.277999877930 236 236 236
12.670030593872 12.687261581421 4.233001708984 243 243 243
12.638793945313 12.679395675659 4.186996459961 14 14 14
12.638793945313 12.679395675659 4.140991210938 36 36 36
12.670030593872 12.687261581421 4.095993041992 231 231 231
12.666343688965 12.694147109985 4.050003051758 215 215 215
12.666343688965 12.694147109985 4.003997802734 205 205 205
12.638793945313 12.679395675659 3.957992553711 198 198 198
12.670030593872 12.687261581421 3.912002563477 191 191 191
12.670030593872 12.687261581421 3.865997314453 189 189 189
12.638793945313 12.679395675659 3.819992065430 184 184 184
12.638793945313 12.679395675659 3.774002075195 178 178 178
12.638793945313 12.679395675659 3.727996826172 176 176 176
12.638793945313 12.679395675659 3.681991577148 172 172 172
12.638793945313 12.679395675659 3.636001586914 166 166 166
12.658967018127 12.707921981812 3.589996337891 162 162 162
12.658967018127 12.707921981812 3.543991088867 162 162 162
12.638793945313 12.679395675659 3.498001098633 157 157 157
12.658967018127 12.707921981812 3.451995849609 157 157 157
12.635107040405 12.686283111572 3.403991699219 160 160 160
12.638793945313 12.679395675659 3.358001708984 165 165 165
12.627730369568 12.700057983398 3.309997558594 170 170 170
12.627730369568 12.700057983398 3.263000488281 171 171 171
12.627730369568 12.700057983398 3.215988159180 177 177 177
12.596492767334 12.692192077637 3.167999267578 181 181 181
12.596492767334 12.692192077637 3.119995117188 179 179 179
12.596492767334 12.692192077637 3.072998046875 177 177 177
12.596492767334 12.692192077637 3.024993896484 175 175 175
12.596492767334 12.692192077637 2.978988647461 166 166 166
12.596492767334 12.692192077637 2.931991577148 160 160 160
12.627730369568 12.700057983398 2.886001586914 150 150 150
12.627730369568 12.700057983398 2.839996337891 141 141 141
12.627730369568 12.700057983398 2.791992187500 133 133 133
12.589117050171 12.705966949463 2.009994506836 221 221 221
12.531754493713 12.382801055908 5.354995727539 229 229 229
12.520690917969 12.403461456299 5.310989379883 26 26 26
12.524378776550 12.396574020386 5.261001586914 24 24 24
12.520690917969 12.403461456299 5.212997436523 22 22 22
12.524378776550 12.396574020386 5.164993286133 26 26 26
12.531754493713 12.382801055908 5.113998413086 208 208 208
12.524378776550 12.396574020386 5.019989013672 126 126 126
12.520690917969 12.403461456299 4.973999023438 16 16 16
12.520690917969 12.403461456299 4.925003051758 20 20 20
12.520690917969 12.403461456299 4.877990722656 27 27 27
12.485765457153 12.402484893799 4.830001831055 40 40 40
