8.145842552185 18.331680297852 49.940010070801 141 141 141
8.124249458313 18.354269027710 49.907005310059 161 161 161
8.124249458313 18.354269027710 49.873008728027 156 156 156
8.124249458313 18.354269027710 49.834999084473 165 165 165
8.124249458313 18.354269027710 49.801002502441 156 156 156
8.124249458313 18.354269027710 49.763999938965 147 147 147
8.124249458313 18.354269027710 49.728996276855 125 125 125
8.145842552185 18.331680297852 49.693000793457 140 140 140
8.145842552185 18.331680297852 49.655998229980 139 139 139
8.124249458313 18.354269027710 49.623008728027 140 140 140
8.151490211487 18.337078094482 49.584999084473 144 144 144
8.124249458313 18.354269027710 49.553001403809 139 139 139
8.124249458313 18.354269027710 49.517997741699 134 134 134
8.151490211487 18.337078094482 49.480995178223 43 43 43
8.049170494080 18.455423355103 47.399009704590 19 19 19
8.059966087341 18.444129943848 47.366004943848 41 41 41
8.054818153381 18.460823059082 47.325996398926 60 60 60
8.043524742126 18.450025558472 47.290000915527 73 73 73
8.043524742126 18.450025558472 47.254005432129 86 86 86
8.043524742126 18.450025558472 47.215003967285 85 85 85
8.049170494080 18.455423355103 47.177009582520 93 93 93
8.033225059509 18.483411788940 47.133995056152 111 111 111
8.033225059509 18.483411788940 47.096000671387 109 109 109
8.038372993469 18.466718673706 47.058998107910 107 107 107
7.995684623718 18.533988952637 47.000007629395 223 223 223
7.995684623718 18.533988952637 46.963005065918 204 204 204
8.123911857605 18.829484939575 50.002998352051 106 106 106
8.107468605042 18.835380554199 49.967002868652 138 138 138
8.102318763733 18.852073669434 49.931007385254 137 137 137
8.107468605042 18.835380554199 49.890998840332 143 143 143
8.102318763733 18.852073669434 49.855003356934 138 138 138
8.123911857605 18.829484939575 49.814002990723 136 136 136
8.107468605042 18.835380554199 49.777000427246 72 72 72
8.123911857605 18.829484939575 49.664009094238 38 38 38
8.102318763733 18.852073669434 49.629005432129 152 152 152
8.102318763733 18.852073669434 49.592002868652 160 160 160
8.102318763733 18.852073669434 49.554008483887 158 158 158
8.107468605042 18.835380554199 49.515998840332 160 160 160
8.107468605042 18.835380554199 49.478996276855 158 158 158
8.102318763733 18.852073669434 49.442008972168 157 157 157
8.102318763733 18.852073669434 49.405998229980 21 21 21
8.116778373718 18.022897720337 49.288002014160 24 24 24
8.160464286804 17.999809265137 49.323997497559 170 170 170
8.138869285583 18.022399902344 49.362007141113 190 190 190
8.160464286804 17.999809265137 49.399009704590 197 197 197
8.138869285583 18.022399902344 49.437004089355 211 211 211
8.138869285583 18.022399902344 49.474998474121 211 211 211
8.155314445496 18.016502380371 49.512001037598 185 185 185
8.138869285583 18.022399902344 49.931999206543 199 199 199
8.138869285583 18.022399902344 49.970008850098 202 202 202
8.138869285583 18.022399902344 50.008003234863 203 203 203
8.138869285583 18.022399902344 50.047004699707 205 205 205
8.138869285583 18.022399902344 50.084999084473 208 208 208
8.138869285583 18.022399902344 50.124000549316 199 199 199
8.128901481628 18.315485000610 49.474998474121 184 184 184
8.128901481628 18.315485000610 49.515007019043 191 191 191
8.123253822327 18.310087203979 49.555000305176 199 199 199
8.128901481628 18.315485000610 49.593009948730 194 194 194
8.128901481628 18.315485000610 49.631996154785 196 196 196
8.128901481628 18.315485000610 49.672004699707 195 195 195
8.128901481628 18.315485000610 49.711997985840 72 72 72
8.123253822327 18.310087203979 49.752006530762 183 183 183
8.128901481628 18.315485000610 49.791007995605 198 198 198
8.123253822327 18.310087203979 49.832008361816 202 202 202
8.112954139709 18.343471527100 49.872001647949 200 200 200
8.112954139709 18.343471527100 49.911003112793 206 206 206
8.128901481628 18.315485000610 49.950004577637 202 202 202
8.134547233582 18.320882797241 49.987007141113 61 61 61
8.124579429626 18.613967895508 48.788002014160 13 13 13
8.118931770325 18.608570098877 48.827995300293 15 15 15
8.157467842102 18.602176666260 48.868995666504 27 27 27
8.151820182800 18.596776962280 48.909004211426 36 36 36
8.168761253357 18.612972259521 48.948997497559 42 42 42
8.163113594055 18.607574462891 48.989006042480 46 46 46
8.184706687927 18.584983825684 49.028999328613 51 51 51
8.168761253357 18.612972259521 49.069999694824 64 64 64
8.163113594055 18.607574462891 49.110008239746 69 69 69
8.168761253357 18.612972259521 49.150001525879 66 66 66
8.185206413269 18.607074737549 49.190010070801 72 72 72
8.184706687927 18.584983825684 49.230003356934 75 75 75
8.196002006531 18.595781326294 49.269996643066 72 72 72
8.185206413269 18.607074737549 49.310005187988 79 79 79
8.201151847839 18.579088211060 49.349998474121 82 82 82
8.217597007751 18.573190689087 49.388999938965 80 80 80
8.206799507141 18.584486007690 49.429008483887 82 82 82
8.206799507141 18.584486007690 49.470008850098 81 81 81
8.185206413269 18.607074737549 49.511009216309 81 81 81
8.124579429626 18.613967895508 49.556999206543 167 167 167
8.118931770325 18.608570098877 49.599006652832 194 194 194
8.185206413269 18.607074737549 49.633003234863 214 214 214
8.130225181580 18.619367599487 49.680000305176 183 183 183
8.130225181580 18.619367599487 49.720008850098 192 192 192
8.130225181580 18.619367599487 49.762001037598 181 181 181
8.196002006531 18.595781326294 49.795005798340 213 213 213
8.163113594055 18.607574462891 49.838996887207 195 195 195
8.207297325134 18.606576919556 49.874000549316 118 118 118
8.223242759705 18.578590393066 49.911994934082 104 104 104
8.217597007751 18.573190689087 49.952995300293 105 105 105
8.228890419006 18.583988189697 49.991996765137 112 112 112
8.223242759705 18.578590393066 50.034004211426 113 113 113
8.234538078308 18.589385986328 50.073005676270 111 111 111
8.081721305847 18.918846130371 49.392997741699 180 180 180
8.103812217712 18.918348312378 49.433998107910 211 211 211
8.098164558411 18.912950515747 49.476997375488 215 215 215
8.081721305847 18.918846130371 49.519996643066 210 210 210
8.081721305847 18.918846130371 49.562004089355 211 211 211
8.081721305847 18.918846130371 49.603996276855 206 206 206
8.087368965149 18.924243927002 49.818000793457 171 171 171
8.076571464539 18.935539245605 49.861000061035 191 191 191
8.087368965149 18.924243927002 49.903007507324 199 199 199
8.087368965149 18.924243927002 49.946006774902 193 193 193
8.087368965149 18.924243927002 49.989006042480 197 197 197
8.087368965149 18.924243927002 50.032005310059 185 185 185
8.216599464417 18.529008865356 50.112998962402 41 41 41
8.216599464417 18.529008865356 50.071998596191 151 151 151
8.216599464417 18.529008865356 50.030998229980 158 158 158
8.216599464417 18.529008865356 49.989997863770 155 155 155
8.216599464417 18.529008865356 49.948997497559 158 158 158
8.216599464417 18.529008865356 49.905998229980 157 157 157
8.216599464417 18.529008865356 49.866004943848 158 158 158
8.226899147034 18.495622634888 49.823997497559 169 169 169
8.232544898987 18.501020431519 49.782005310059 184 184 184
8.216599464417 18.529008865356 49.743003845215 157 157 157
8.216599464417 18.529008865356 49.702003479004 154 154 154
8.232544898987 18.501020431519 49.659004211426 179 179 179
8.226899147034 18.495622634888 49.620002746582 188 188 188
8.216599464417 18.529008865356 49.579002380371 148 148 148
8.216599464417 18.529008865356 49.540000915527 146 146 146
8.216599464417 18.529008865356 49.499000549316 150 150 150
8.222247123718 18.534408569336 49.459007263184 161 161 161
8.216599464417 18.529008865356 49.418006896973 159 159 159
8.222247123718 18.534408569336 49.377998352051 159 159 159
8.216599464417 18.529008865356 49.338005065918 159 159 159
8.216599464417 18.529008865356 49.295997619629 143 143 143
8.216599464417 18.529008865356 49.256004333496 133 133 133
8.222247123718 18.534408569336 49.215003967285 130 130 130
8.216599464417 18.529008865356 49.174003601074 130 130 130
8.216599464417 18.529008865356 49.133995056152 127 127 127
8.216599464417 18.529008865356 49.094001770020 122 122 122
8.216599464417 18.529008865356 49.053001403809 113 113 113
8.216599464417 18.529008865356 49.013008117676 105 105 105
8.222247123718 18.534408569336 48.972999572754 99 99 99
8.211451530457 18.545701980591 48.931999206543 96 96 96
8.216599464417 18.529008865356 48.892005920410 70 70 70
8.222247123718 18.534408569336 48.851005554199 26 26 26
8.099162101746 18.957134246826 49.366996765137 194 194 194
8.104809761047 18.962532043457 49.409004211426 211 211 211
8.115605354309 18.951236724854 49.450996398926 218 218 218
8.104809761047 18.962532043457 49.493995666504 208 208 208
8.088364601135 18.968429565430 49.538002014160 209 209 209
8.099162101746 18.957134246826 49.580009460449 198 198 198
8.088364601135 18.968429565430 49.881996154785 38 38 38
8.077567100525 18.979722976685 49.926002502441 191 191 191
8.077567100525 18.979722976685 49.969001770020 195 195 195
8.088364601135 18.968429565430 50.011009216309 196 196 196
8.077567100525 18.979722976685 50.055000305176 196 196 196
8.094012260437 18.973827362061 50.097007751465 194 194 194
8.088364601135 18.968429565430 50.142005920410 59 59 59
8.076739311218 18.697933197021 49.502006530762 35 35 35
8.109629631042 18.686138153076 49.541999816895 211 211 211
8.093184471130 18.692035675049 49.584007263184 217 217 217
8.093184471130 18.692035675049 49.625999450684 209 209 209
8.093184471130 18.692035675049 49.666999816895 209 209 209
8.093184471130 18.692035675049 49.709007263184 206 206 206
8.098832130432 18.697433471680 49.749000549316 197 197 197
8.098832130432 18.697433471680 49.791007995605 202 202 202
8.098832130432 18.697433471680 49.833000183105 203 203 203
8.109629631042 18.686138153076 49.873008728027 197 197 197
8.098832130432 18.697433471680 49.916007995605 202 202 202
8.109629631042 18.686138153076 49.957008361816 184 184 184
8.004986763000 18.456420898438 46.952003479004 160 160 160
7.999341011047 18.451021194458 46.993995666504 170 170 170
7.999341011047 18.451021194458 47.038002014160 187 187 187
7.999341011047 18.451021194458 47.080009460449 201 201 201
8.004986763000 18.456420898438 47.125999450684 212 212 212
7.993693351746 18.445623397827 47.164009094238 232 232 232
8.032229423523 18.439229965210 47.215995788574 138 138 138
8.043025016785 18.427934646606 47.263999938965 127 127 127
8.037875175476 18.444627761841 47.305000305176 122 122 122
8.059470176697 18.422037124634 47.351005554199 127 127 127
8.059470176697 18.422037124634 47.394004821777 119 119 119
8.059470176697 18.422037124634 47.435005187988 118 118 118
8.059470176697 18.422037124634 47.478004455566 117 117 117
8.059470176697 18.422037124634 47.519004821777 117 117 117
8.043025016785 18.427934646606 47.560005187988 121 121 121
8.059470176697 18.422037124634 47.603004455566 115 115 115
8.059470176697 18.422037124634 47.644996643066 111 111 111
8.070763587952 18.432834625244 47.691001892090 114 114 114
8.065115928650 18.427436828613 47.730003356934 115 115 115
8.059470176697 18.422037124634 47.769996643066 111 111 111
8.070763587952 18.432834625244 47.814002990723 116 116 116
8.059470176697 18.422037124634 47.853004455566 111 111 111
8.070763587952 18.432834625244 47.896003723145 106 106 106
8.065115928650 18.427436828613 47.935997009277 111 111 111
8.065115928650 18.427436828613 47.976997375488 115 115 115
8.065115928650 18.427436828613 48.017997741699 104 104 104
8.070763587952 18.432834625244 48.060997009277 106 106 106
8.065115928650 18.427436828613 48.099006652832 103 103 103
8.070763587952 18.432834625244 48.142005920410 109 109 109
8.087208747864 18.426939010620 48.183998107910 90 90 90
8.070763587952 18.432834625244 48.224006652832 88 88 88
8.070763587952 18.432834625244 48.263008117676 83 83 83
8.065115928650 18.427436828613 48.303001403809 81 81 81
8.070763587952 18.432834625244 48.345008850098 75 75 75
8.070763587952 18.432834625244 48.385002136230 58 58 58
8.070763587952 18.432834625244 48.424995422363 57 57 57
8.070763587952 18.432834625244 48.465995788574 33 33 33
8.087208747864 18.426939010620 48.506004333496 16 16 16
8.120095252991 18.415145874023 49.583000183105 177 177 177
8.120095252991 18.415145874023 49.623008728027 186 186 186
8.136540412903 18.409248352051 49.661994934082 200 200 200
8.125742912292 18.420543670654 49.702995300293 193 193 193
8.125742912292 18.420543670654 49.743003845215 204 204 204
8.125742912292 18.420543670654 49.782997131348 194 194 194
8.120095252991 18.415145874023 49.823997497559 198 198 198
8.103652000427 18.421041488647 49.864997863770 205 205 205
8.120095252991 18.415145874023 49.905006408691 201 201 201
8.120095252991 18.415145874023 49.946006774902 14 14 14
8.152155876160 18.121562957764 49.428001403809 191 191 191
8.141360282898 18.132856369019 49.467002868652 194 194 194
8.152155876160 18.121562957764 49.504997253418 199 199 199
8.141360282898 18.132856369019 49.543998718262 196 196 196
8.141360282898 18.132856369019 49.582008361816 196 196 196
8.152155876160 18.121562957764 49.620002746582 192 192 192
8.135712623596 18.127458572388 49.659996032715 45 45 45
8.119269371033 18.133354187012 49.855003356934 171 171 171
8.135712623596 18.127458572388 49.892997741699 199 199 199
8.135712623596 18.127458572388 49.931007385254 198 198 198
8.135712623596 18.127458572388 49.971000671387 201 201 201
8.141360282898 18.132856369019 50.008995056152 201 201 201
8.141360282898 18.132856369019 50.047996520996 203 203 203
8.141360282898 18.132856369019 50.086997985840 176 176 176
8.094180107117 18.736219406128 50.011009216309 28 28 28
8.104977607727 18.724924087524 49.972007751465 128 128 128
8.104977607727 18.724924087524 49.935005187988 142 142 142
8.094180107117 18.736219406128 49.899009704590 140 140 140
8.094180107117 18.736219406128 49.861000061035 146 146 146
8.094180107117 18.736219406128 49.823997497559 141 141 141
8.104977607727 18.724924087524 49.784996032715 132 132 132
8.104977607727 18.724924087524 49.748008728027 35 35 35
8.094180107117 18.736219406128 49.711997985840 136 136 136
8.077736854553 18.742115020752 49.677009582520 163 163 163
8.094180107117 18.736219406128 49.638999938965 155 155 155
8.094180107117 18.736219406128 49.601997375488 168 168 168
8.094180107117 18.736219406128 49.565010070801 157 157 157
8.104977607727 18.724924087524 49.526008605957 157 157 157
8.104977607727 18.724924087524 49.489997863770 72 72 72
8.143851280212 18.243312835693 50.019004821777 77 77 77
8.127903938293 18.271301269531 49.989006042480 155 155 155
8.122256278992 18.265903472900 49.952995300293 159 159 159
8.122256278992 18.265903472900 49.916999816895 156 156 156
8.122256278992 18.265903472900 49.881996154785 161 161 161
8.122256278992 18.265903472900 49.847007751465 147 147 147
8.127903938293 18.271301269531 49.812995910645 159 159 159
8.127903938293 18.271301269531 49.778007507324 108 108 108
8.138201713562 18.237915039063 49.702995300293 123 123 123
8.122256278992 18.265903472900 49.668998718262 143 143 143
8.138201713562 18.237915039063 49.633003234863 133 133 133
8.122256278992 18.265903472900 49.599006652832 144 144 144
8.138201713562 18.237915039063 49.562995910645 147 147 147
8.122256278992 18.265903472900 49.530998229980 137 137 137
8.143851280212 18.243312835693 49.493003845215 115 115 115
8.149168968201 17.989013671875 50.153999328613 80 80 80
8.137873649597 17.978216171265 50.112007141113 137 137 137
8.149168968201 17.989013671875 50.075004577637 140 140 140
8.148173332214 17.944829940796 50.028999328613 142 142 142
8.137873649597 17.978216171265 49.993995666504 145 145 145
8.133221626282 18.017000198364 49.963005065918 111 111 111
8.122923851013 18.050386428833 49.928001403809 96 96 96
8.118273735046 18.089172363281 49.894004821777 73 73 73
8.133221626282 18.017000198364 49.575004577637 38 38 38
8.137873649597 17.978216171265 49.532997131348 60 60 60
8.142523765564 17.939432144165 49.493003845215 84 84 84
8.143023490906 17.961523056030 49.456001281738 73 73 73
8.142523765564 17.939432144165 49.416007995605 56 56 56
8.143521308899 17.983613967896 49.381996154785 47 47 47
8.132225990295 17.972818374634 49.340995788574 56 56 56
8.110632896423 17.995407104492 49.310005187988 128 128 128
8.110632896423 17.995407104492 49.347007751465 186 186 186
8.116280555725 18.000804901123 49.385002136230 194 194 194
8.110632896423 17.995407104492 49.422996520996 199 199 199
8.116280555725 18.000804901123 49.459999084473 208 208 208
8.116280555725 18.000804901123 49.498008728027 205 205 205
8.110632896423 17.995407104492 49.536003112793 189 189 189
8.083392143250 18.012598037720 49.918998718262 169 169 169
8.110632896423 17.995407104492 49.955009460449 199 199 199
8.104985237122 17.990009307861 49.995002746582 200 200 200
8.110632896423 17.995407104492 50.032997131348 202 202 202
8.110632896423 17.995407104492 50.071998596191 203 203 203
8.110632896423 17.995407104492 50.110008239746 206 206 206
8.099835395813 18.006702423096 50.150001525879 184 184 184
8.074418067932 18.349866867065 49.506996154785 63 63 63
8.080065727234 18.355266571045 49.545997619629 190 190 190
8.080065727234 18.355266571045 49.586006164551 190 190 190
8.085713386536 18.360664367676 49.625007629395 192 192 192
8.080065727234 18.355266571045 49.665000915527 188 188 188
8.080065727234 18.355266571045 49.705009460449 196 196 196
8.074418067932 18.349866867065 49.745002746582 188 188 188
8.074418067932 18.349866867065 49.786003112793 201 201 201
8.080065727234 18.355266571045 49.825004577637 197 197 197
8.074418067932 18.349866867065 49.866004943848 203 203 203
8.074418067932 18.349866867065 49.905006408691 201 201 201
8.074418067932 18.349866867065 49.944999694824 154 154 154
8.038205146790 18.704326629639 47.084007263184 18 18 18
8.065445899963 18.687135696411 49.513008117676 201 201 201
8.049002647400 18.693031311035 49.555000305176 209 209 209
8.043852806091 18.709724426270 49.597007751465 211 211 211
8.049002647400 18.693031311035 49.638008117676 205 205 205
8.043852806091 18.709724426270 49.680000305176 206 206 206
8.043852806091 18.709724426270 49.722007751465 190 190 190
8.065445899963 18.687135696411 49.762001037598 197 197 197
8.065445899963 18.687135696411 49.804008483887 200 200 200
8.065445899963 18.687135696411 49.845008850098 197 197 197
8.065445899963 18.687135696411 49.887001037598 195 195 195
8.065445899963 18.687135696411 49.929008483887 196 196 196
8.043852806091 18.709724426270 49.972999572754 74 74 74
8.067767143250 19.035200119019 49.299995422363 123 123 123
8.067767143250 19.035200119019 49.343009948730 199 199 199
8.062119483948 19.029802322388 49.386009216309 207 207 207
8.062119483948 19.029802322388 49.429008483887 206 206 206
8.051323890686 19.041095733643 49.472999572754 210 210 210
8.062119483948 19.029802322388 49.515007019043 198 198 198
8.018435478210 19.052890777588 49.909996032715 12 12 12
8.024083137512 19.058288574219 49.952003479004 192 192 192
8.024083137512 19.058288574219 49.996009826660 185 185 185
8.034880638123 19.046993255615 50.039009094238 193 193 193
8.034880638123 19.046993255615 50.082008361816 190 190 190
8.040526390076 19.052391052246 50.125007629395 165 165 165
8.024083137512 19.058288574219 50.172004699707 15 15 15
8.098174095154 18.178035736084 49.435005187988 142 142 142
8.093024253845 18.194728851318 49.471000671387 144 144 144
8.093024253845 18.194728851318 49.504005432129 153 153 153
8.093024253845 18.194728851318 49.539009094238 145 145 145
8.093024253845 18.194728851318 49.571998596191 147 147 147
8.114617347717 18.172138214111 49.605995178223 145 145 145
8.093024253845 18.194728851318 49.642005920410 112 112 112
8.065783500671 18.211919784546 49.784996032715 120 120 120
8.093024253845 18.194728851318 49.815010070801 161 161 161
8.093024253845 18.194728851318 49.851005554199 150 150 150
8.087874412537 18.211421966553 49.887001037598 165 165 165
8.093024253845 18.194728851318 49.920005798340 163 163 163
8.082228660583 18.206024169922 49.959007263184 160 160 160
8.093024253845 18.194728851318 49.989997863770 160 160 160
8.120265007019 18.177537918091 50.019996643066 97 97 97
8.120923042297 18.696935653687 47.107002258301 19 19 19
8.040198326111 18.792692184448 49.435997009277 103 103 103
8.061791419983 18.770103454590 49.471000671387 163 163 163
8.056143760681 18.764703750610 49.508995056152 160 160 160
8.061791419983 18.770103454590 49.545005798340 168 168 168
8.040198326111 18.792692184448 49.584007263184 161 161 161
8.034548759460 18.787294387817 49.622001647949 160 160 160
8.040198326111 18.792692184448 49.657005310059 126 126 126
8.040198326111 18.792692184448 49.767997741699 123 123 123
8.040198326111 18.792692184448 49.806007385254 143 143 143
8.040198326111 18.792692184448 49.844001770020 151 151 151
8.040198326111 18.792692184448 49.881004333496 146 146 146
8.056143760681 18.764703750610 49.916999816895 143 143 143
8.061791419983 18.770103454590 49.954002380371 141 141 141
8.040198326111 18.792692184448 49.993003845215 83 83 83
8.084717750549 18.316480636597 49.940010070801 76 76 76
8.074418067932 18.349866867065 49.903999328613 117 117 117
8.069767951965 18.388652801514 49.868995666504 112 112 112
8.059470176697 18.422037124634 49.831001281738 134 134 134
8.069767951965 18.388652801514 49.790000915527 134 134 134
8.069767951965 18.388652801514 49.747001647949 116 116 116
8.069767951965 18.388652801514 49.706001281738 141 141 141
8.065115928650 18.427436828613 49.670005798340 124 124 124
8.069767951965 18.388652801514 49.625999450684 123 123 123
8.065115928650 18.427436828613 49.588996887207 118 118 118
8.075415611267 18.394050598145 49.545997619629 117 117 117
8.043524742126 18.450025558472 49.510002136230 95 95 95
8.054818153381 18.460823059082 49.470008850098 99 99 99
8.054818153381 18.460823059082 49.430000305176 107 107 107
8.054818153381 18.460823059082 49.388999938965 122 122 122
8.060465812683 18.466220855713 49.349006652832 127 127 127
8.060465812683 18.466220855713 49.308998107910 156 156 156
8.060465812683 18.466220855713 49.267997741699 173 173 173
8.060465812683 18.466220855713 49.228004455566 171 171 171
8.060465812683 18.466220855713 49.187004089355 171 171 171
8.060465812683 18.466220855713 49.146995544434 174 174 174
8.060465812683 18.466220855713 49.105995178223 171 171 171
8.060465812683 18.466220855713 49.066001892090 161 161 161
8.060465812683 18.466220855713 49.025001525879 159 159 159
8.050166130066 18.499607086182 48.985008239746 164 164 164
8.050166130066 18.499607086182 48.944007873535 169 169 169
8.060465812683 18.466220855713 48.903999328613 168 168 168
8.050166130066 18.499607086182 48.862998962402 173 173 173
8.066611289978 18.493709564209 48.823005676270 180 180 180
8.050166130066 18.499607086182 48.782005310059 180 180 180
8.066611289978 18.493709564209 48.741996765137 179 179 179
8.066611289978 18.493709564209 48.700996398926 175 175 175
8.066611289978 18.493709564209 48.659996032715 179 179 179
8.066611289978 18.493709564209 48.620002746582 176 176 176
8.066111564636 18.471618652344 48.580009460449 178 178 178
8.066611289978 18.493709564209 48.539009094238 183 183 183
8.066611289978 18.493709564209 48.498008728027 178 178 178
8.072258949280 18.499109268188 48.458000183105 164 164 164
8.066611289978 18.493709564209 48.416007995605 178 178 178
8.066611289978 18.493709564209 48.375999450684 178 178 178
8.066611289978 18.493709564209 48.334007263184 176 176 176
8.072258949280 18.499109268188 48.293998718262 177 177 177
8.072258949280 18.499109268188 48.254005432129 180 180 180
8.072258949280 18.499109268188 48.213005065918 178 178 178
8.072258949280 18.499109268188 48.170997619629 176 176 176
8.072258949280 18.499109268188 48.129997253418 178 178 178
8.072258949280 18.499109268188 48.088996887207 177 177 177
8.072258949280 18.499109268188 48.047004699707 175 175 175
8.072258949280 18.499109268188 48.006996154785 176 176 176
8.083056449890 18.487813949585 47.967002868652 171 171 171
8.083056449890 18.487813949585 47.924995422363 164 164 164
8.072258949280 18.499109268188 47.883003234863 178 178 178
8.072258949280 18.499109268188 47.840995788574 182 182 182
8.083056449890 18.487813949585 47.799995422363 173 173 173
8.083056449890 18.487813949585 47.758003234863 177 177 177
8.083056449890 18.487813949585 47.717002868652 174 174 174
8.083056449890 18.487813949585 47.674995422363 175 175 175
8.083056449890 18.487813949585 47.631996154785 178 178 178
8.083056449890 18.487813949585 47.590995788574 167 167 167
8.083056449890 18.487813949585 47.549003601074 172 172 172
8.077904701233 18.504507064819 47.504997253418 166 166 166
8.077904701233 18.504507064819 47.461997985840 160 160 160
8.083056449890 18.487813949585 47.422004699707 153 153 153
8.083056449890 18.487813949585 47.379005432129 152 152 152
8.063452720642 18.598770141602 47.312004089355 240 240 240
8.058304786682 18.615463256836 47.267005920410 249 249 249
8.047507286072 18.626758575439 47.218009948730 10 10 10
8.063452720642 18.598770141602 47.183006286621 8 8 8
8.068602561951 18.582077026367 47.140998840332 9 9 9
8.079400062561 18.570781707764 47.101005554199 250 250 250
8.068104743958 18.559986114502 47.062004089355 229 229 229
8.068602561951 18.582077026367 47.011009216309 227 227 227
8.058304786682 18.615463256836 46.959007263184 217 217 217
8.102648735046 19.111774444580 49.467002868652 99 99 99
8.135874748230 18.624765396118 47.177009582520 33 33 33
8.210951805115 18.523609161377 49.215003967285 47 47 47
8.205803871155 18.540304183960 49.250999450684 74 74 74
8.210951805115 18.523609161377 49.284996032715 93 93 93
8.210951805115 18.523609161377 49.319999694824 93 93 93
8.210951805115 18.523609161377 49.353996276855 95 95 95
8.210951805115 18.523609161377 49.390007019043 96 96 96
8.210951805115 18.523609161377 49.424995422363 102 102 102
8.210951805115 18.523609161377 49.459999084473 103 103 103
8.167765617371 18.568788528442 49.502006530762 140 140 140
8.146172523499 18.591379165649 49.540000915527 155 155 155
8.146172523499 18.591379165649 49.575996398926 150 150 150
8.167765617371 18.568788528442 49.609001159668 152 152 152
8.210951805115 18.523609161377 49.635002136230 170 170 170
8.183711051941 18.540802001953 49.676002502441 149 149 149
8.183711051941 18.540802001953 49.711997985840 141 141 141
8.183711051941 18.540802001953 49.746009826660 141 141 141
8.210951805115 18.523609161377 49.778007507324 150 150 150
8.226899147034 18.495622634888 49.810005187988 169 169 169
8.210453987122 18.501518249512 49.847007751465 152 152 152
8.210453987122 18.501518249512 49.883003234863 153 153 153
8.210453987122 18.501518249512 49.918998718262 149 149 149
8.210453987122 18.501518249512 49.955009460449 151 151 151
8.210453987122 18.501518249512 49.989997863770 150 150 150
8.226899147034 18.495622634888 50.024009704590 151 151 151
8.210453987122 18.501518249512 50.062004089355 143 143 143
8.210453987122 18.501518249512 50.097999572754 118 118 118
8.156807899475 18.082777023315 49.374000549316 23 23 23
8.140862464905 18.110765457153 49.409996032715 140 140 140
8.124419212341 18.116661071777 49.446006774902 151 151 151
8.135214805603 18.105365753174 49.476997375488 153 153 153
8.129567146301 18.099967956543 49.511009216309 147 147 147
8.140862464905 18.110765457153 49.545005798340 147 147 147
8.129567146301 18.099967956543 49.577995300293 148 148 148
8.135214805603 18.105365753174 49.611000061035 106 106 106
8.113621711731 18.127956390381 49.855003356934 136 136 136
8.129567146301 18.099967956543 49.885002136230 162 162 162
8.124419212341 18.116661071777 49.920997619629 154 154 154
8.129567146301 18.099967956543 49.954002380371 165 165 165
8.129567146301 18.099967956543 49.987998962402 164 164 164
8.124419212341 18.116661071777 50.026008605957 156 156 156
8.129567146301 18.099967956543 50.058998107910 163 163 163
8.151160240173 18.077377319336 50.088005065918 109 109 109
8.121092796326 18.459327697754 50.116004943848 94 94 94
8.121092796326 18.459327697754 50.073997497559 123 123 123
8.121092796326 18.459327697754 50.032997131348 139 139 139
8.121092796326 18.459327697754 49.991996765137 136 136 136
8.110295295715 18.470623016357 49.952995300293 152 152 152
8.121092796326 18.459327697754 49.909004211426 160 160 160
8.115942955017 18.476020812988 49.870002746582 164 164 164
8.110295295715 18.470623016357 49.830009460449 169 169 169
8.121092796326 18.459327697754 49.786994934082 159 159 159
8.110295295715 18.470623016357 49.748008728027 152 152 152
8.110295295715 18.470623016357 49.708000183105 153 153 153
8.110295295715 18.470623016357 49.666999816895 150 150 150
8.110793113708 18.492713928223 49.627006530762 159 159 159
8.110793113708 18.492713928223 49.586006164551 164 164 164
8.110295295715 18.470623016357 49.545005798340 164 164 164
8.110295295715 18.470623016357 49.504005432129 165 165 165
8.110295295715 18.470623016357 49.463996887207 169 169 169
8.110295295715 18.470623016357 49.422996520996 180 180 180
8.110793113708 18.492713928223 49.383003234863 178 178 178
8.110295295715 18.470623016357 49.342002868652 178 178 178
8.110793113708 18.492713928223 49.302009582520 177 177 177
8.110793113708 18.492713928223 49.262001037598 180 180 180
8.110295295715 18.470623016357 49.221000671387 177 177 177
8.110793113708 18.492713928223 49.180000305176 177 177 177
8.110793113708 18.492713928223 49.140007019043 181 181 181
8.110793113708 18.492713928223 49.099006652832 181 181 181
8.110295295715 18.470623016357 49.058998107910 179 179 179
8.110793113708 18.492713928223 49.019004821777 173 173 173
8.110793113708 18.492713928223 48.978004455566 179 179 179
8.110793113708 18.492713928223 48.937995910645 179 179 179
8.110793113708 18.492713928223 48.896995544434 179 179 179
8.115942955017 18.476020812988 48.857002258301 179 179 179
8.115942955017 18.476020812988 48.817008972168 180 180 180
8.110793113708 18.492713928223 48.776008605957 178 178 178
8.110793113708 18.492713928223 48.735008239746 175 175 175
8.115942955017 18.476020812988 48.694999694824 174 174 174
8.110793113708 18.492713928223 48.653999328613 175 175 175
8.115942955017 18.476020812988 48.614006042480 177 177 177
8.127238273621 18.486818313599 48.573997497559 180 180 180
8.127238273621 18.486818313599 48.532997131348 177 177 177
8.127238273621 18.486818313599 48.491996765137 174 174 174
8.127238273621 18.486818313599 48.452003479004 172 172 172
8.127238273621 18.486818313599 48.411003112793 174 174 174
8.127238273621 18.486818313599 48.370002746582 179 179 179
8.115942955017 18.476020812988 48.330009460449 173 173 173
8.115942955017 18.476020812988 48.289009094238 176 176 176
8.127238273621 18.486818313599 48.248008728027 178 178 178
8.127238273621 18.486818313599 48.207008361816 173 173 173
8.127238273621 18.486818313599 48.166007995605 177 177 177
8.127238273621 18.486818313599 48.125007629395 177 177 177
8.127238273621 18.486818313599 48.084007263184 175 175 175
8.127238273621 18.486818313599 48.041999816895 176 176 176
8.115942955017 18.476020812988 48.002006530762 175 175 175
8.127238273621 18.486818313599 47.959999084473 172 172 172
8.127238273621 18.486818313599 47.918998718262 171 171 171
8.115942955017 18.476020812988 47.877998352051 181 181 181
8.115942955017 18.476020812988 47.838005065918 178 178 178
8.110793113708 18.492713928223 47.793006896973 174 174 174
8.115942955017 18.476020812988 47.754005432129 178 178 178
8.127238273621 18.486818313599 47.711006164551 175 175 175
8.127238273621 18.486818313599 47.666999816895 172 172 172
8.127238273621 18.486818313599 47.627006530762 171 171 171
8.127238273621 18.486818313599 47.584999084473 168 168 168
8.127238273621 18.486818313599 47.543006896973 170 170 170
8.127238273621 18.486818313599 47.500007629395 165 165 165
8.127238273621 18.486818313599 47.458000183105 163 163 163
8.127238273621 18.486818313599 47.415000915527 162 162 162
8.127238273621 18.486818313599 47.374000549316 156 156 156
8.096343040466 18.586977005005 47.308006286621 240 240 240
8.090693473816 18.581579208374 47.267997741699 235 235 235
8.096343040466 18.586977005005 47.219001770020 247 247 247
8.100993156433 18.548192977905 47.183006286621 239 239 239
8.095345497131 18.542793273926 47.144004821777 230 230 230
8.116938591003 18.520204544067 47.107002258301 187 187 187
8.111790657043 18.536897659302 47.060005187988 193 193 193
8.116938591003 18.520204544067 47.017997741699 186 186 186
8.116938591003 18.520204544067 46.974006652832 187 187 187
8.097666740417 18.890859603882 49.375007629395 69 69 69
8.097666740417 18.890859603882 49.418006896973 210 210 210
8.081223487854 18.896755218506 49.459999084473 211 211 211
8.081223487854 18.896755218506 49.502006530762 213 213 213
8.070425987244 18.908050537109 49.545005798340 210 210 210
8.081223487854 18.896755218506 49.586997985840 206 206 206
8.081223487854 18.896755218506 49.629997253418 173 173 173
8.064780235291 18.902652740479 49.844001770020 69 69 69
8.064780235291 18.902652740479 49.886009216309 194 194 194
8.064780235291 18.902652740479 49.929008483887 191 191 191
8.070425987244 18.908050537109 49.972007751465 193 193 193
8.070425987244 18.908050537109 50.013999938965 194 194 194
8.070425987244 18.908050537109 50.056999206543 193 193 193
8.064780235291 18.902652740479 50.101997375488 50 50 50
8.091193199158 18.603670120239 49.588005065918 201 201 201
8.074748039246 18.609565734863 49.629997253418 210 210 210
8.091193199158 18.603670120239 49.670005798340 202 202 202
8.096343040466 18.586977005005 49.709007263184 195 195 195
8.096343040466 18.586977005005 49.750999450684 207 207 207
8.096343040466 18.586977005005 49.791999816895 197 197 197
8.096343040466 18.586977005005 49.833000183105 200 200 200
8.096343040466 18.586977005005 49.874000549316 197 197 197
8.112786293030 18.581081390381 49.913002014160 119 119 119
8.117108345032 18.282596588135 49.508995056152 175 175 175
8.122756004333 18.287994384766 49.547004699707 191 191 191
8.122756004333 18.287994384766 49.586006164551 197 197 197
8.122756004333 18.287994384766 49.625999450684 192 192 192
8.122756004333 18.287994384766 49.664009094238 192 192 192
8.133551597595 18.276700973511 49.704002380371 191 191 191
8.117108345032 18.282596588135 49.743995666504 129 129 129
8.117108345032 18.282596588135 49.784004211426 189 189 189
8.117108345032 18.282596588135 49.823005676270 198 198 198
8.122756004333 18.287994384766 49.862007141113 203 203 203
8.117108345032 18.282596588135 49.903007507324 202 202 202
8.117108345032 18.282596588135 49.942008972168 203 203 203
8.117108345032 18.282596588135 49.982002258301 196 196 196
8.137873649597 17.978216171265 49.321006774902 131 131 131
8.137873649597 17.978216171265 49.358009338379 186 186 186
8.137873649597 17.978216171265 49.394996643066 194 194 194
8.137873649597 17.978216171265 49.433006286621 197 197 197
8.137873649597 17.978216171265 49.470008850098 215 215 215
8.137873649597 17.978216171265 49.508003234863 211 211 211
8.137873649597 17.978216171265 49.545005798340 186 186 186
8.137873649597 17.978216171265 49.924003601074 29 29 29
8.137873649597 17.978216171265 49.963005065918 198 198 198
8.137873649597 17.978216171265 50.000007629395 201 201 201
8.137873649597 17.978216171265 50.039009094238 206 206 206
8.137873649597 17.978216171265 50.077003479004 205 205 205
8.137873649597 17.978216171265 50.114997863770 205 205 205
8.137873649597 17.978216171265 50.153999328613 188 188 188
