15.437500000000 10.687500000000 50.142997741699 158 158 158
15.500000000000 10.625000000000 50.069000244141 166 166 166
15.500000000000 10.625000000000 49.994998931885 164 164 164
15.500000000000 10.625000000000 49.921997070313 137 137 137
15.375000000000 10.562500000000 51.889999389648 131 131 131
15.500000000000 10.562500000000 51.834999084473 123 123 123
15.312500000000 10.625000000000 51.713996887207 57 57 57
15.500000000000 10.562500000000 51.456996917725 134 134 134
15.500000000000 10.562500000000 51.381996154785 158 158 158
15.500000000000 10.562500000000 51.307998657227 190 190 190
15.500000000000 10.500000000000 51.231998443604 85 85 85
15.500000000000 10.562500000000 51.159996032715 186 186 186
15.500000000000 10.562500000000 51.086997985840 175 175 175
15.500000000000 10.562500000000 51.013996124268 174 174 174
15.562500000000 10.500000000000 50.434997558594 155 155 155
15.562500000000 10.500000000000 50.360996246338 164 164 164
15.562500000000 10.500000000000 50.286998748779 171 171 171
15.562500000000 10.500000000000 50.213996887207 169 169 169
15.500000000000 10.500000000000 50.140998840332 149 149 149
15.500000000000 10.437500000000 51.537998199463 109 109 109
15.500000000000 10.437500000000 51.461997985840 157 157 157
15.500000000000 10.437500000000 51.386997222900 188 188 188
15.500000000000 10.437500000000 51.312000274658 116 116 116
15.500000000000 10.437500000000 51.088996887207 168 168 168
15.500000000000 10.437500000000 51.015998840332 172 172 172
15.500000000000 10.437500000000 50.941997528076 192 192 192
15.500000000000 10.437500000000 50.870998382568 70 70 70
15.500000000000 10.250000000000 51.615997314453 61 61 61
15.500000000000 10.250000000000 51.541000366211 159 159 159
15.500000000000 10.250000000000 51.465999603271 160 160 160
15.500000000000 10.250000000000 51.389999389648 138 138 138
15.500000000000 10.250000000000 51.020996093750 149 149 149
15.500000000000 10.250000000000 50.944999694824 197 197 197
15.500000000000 10.250000000000 50.871997833252 161 161 161
15.500000000000 10.250000000000 50.799999237061 125 125 125
15.500000000000 10.125000000000 51.467998504639 124 124 124
15.500000000000 10.125000000000 50.945999145508 57 57 57
15.375000000000 11.312500000000 50.965000152588 133 133 133
15.375000000000 11.312500000000 51.036998748779 117 117 117
15.500000000000 11.375000000000 51.553997039795 34 34 34
15.375000000000 11.250000000000 50.895996093750 168 168 168
15.375000000000 11.250000000000 50.967998504639 179 179 179
15.375000000000 11.250000000000 51.039997100830 184 184 184
15.375000000000 11.250000000000 51.111999511719 68 68 68
15.375000000000 11.250000000000 51.481998443604 193 193 193
15.437500000000 11.187500000000 51.559997558594 166 166 166
15.437500000000 11.187500000000 51.635997772217 164 164 164
15.375000000000 11.125000000000 49.240997314453 107 107 107
15.500000000000 11.187500000000 49.312000274658 142 142 142
15.500000000000 11.187500000000 49.385997772217 141 141 141
15.375000000000 11.125000000000 49.459999084473 126 126 126
15.500000000000 11.187500000000 49.529998779297 139 139 139
15.500000000000 11.187500000000 49.601997375488 142 142 142
15.500000000000 11.187500000000 49.675998687744 38 38 38
15.500000000000 11.187500000000 50.968997955322 172 172 172
15.500000000000 11.187500000000 51.041000366211 179 179 179
15.375000000000 11.125000000000 51.112998962402 182 182 182
15.500000000000 11.187500000000 51.409000396729 197 197 197
15.500000000000 11.187500000000 51.485996246338 178 178 178
15.500000000000 11.187500000000 51.558998107910 164 164 164
15.375000000000 11.000000000000 49.240997314453 92 92 92
15.375000000000 11.000000000000 49.312000274658 162 162 162
15.375000000000 11.000000000000 49.386997222900 143 143 143
15.375000000000 11.000000000000 49.461997985840 125 125 125
15.437500000000 11.000000000000 49.530998229980 144 144 144
15.437500000000 11.000000000000 49.601997375488 144 144 144
15.375000000000 11.000000000000 49.676998138428 64 64 64
15.562500000000 11.125000000000 50.103996276855 94 94 94
15.625000000000 11.062500000000 50.174999237061 139 139 139
15.625000000000 11.062500000000 50.248996734619 153 153 153
15.625000000000 11.062500000000 50.322998046875 154 154 154
15.625000000000 11.062500000000 50.397998809814 159 159 159
15.437500000000 11.000000000000 51.041999816895 177 177 177
15.437500000000 11.000000000000 51.115997314453 180 180 180
15.437500000000 11.000000000000 51.188999176025 183 183 183
15.437500000000 11.000000000000 51.338996887207 174 174 174
15.437500000000 11.000000000000 51.412998199463 175 175 175
15.437500000000 11.000000000000 51.486999511719 172 172 172
15.375000000000 10.937500000000 51.841999053955 38 38 38
15.375000000000 10.812500000000 48.656997680664 122 122 122
15.375000000000 10.875000000000 48.891998291016 135 135 135
15.375000000000 10.875000000000 48.965999603271 132 132 132
15.375000000000 10.875000000000 49.038997650146 118 118 118
15.375000000000 10.875000000000 49.110996246338 118 118 118
15.375000000000 10.875000000000 49.181999206543 103 103 103
15.375000000000 10.875000000000 49.255996704102 100 100 100
15.375000000000 10.875000000000 49.326999664307 101 101 101
15.375000000000 10.875000000000 49.399997711182 97 97 97
15.375000000000 10.812500000000 49.465999603271 129 129 129
15.375000000000 10.875000000000 49.542999267578 90 90 90
15.375000000000 10.875000000000 49.613998413086 78 78 78
15.375000000000 10.875000000000 49.684997558594 79 79 79
15.375000000000 10.875000000000 49.755996704102 79 79 79
15.375000000000 10.875000000000 49.826999664307 76 76 76
15.375000000000 10.812500000000 49.893997192383 93 93 93
15.500000000000 10.875000000000 49.959999084473 129 129 129
15.500000000000 10.875000000000 50.031997680664 149 149 149
15.500000000000 10.875000000000 50.103996276855 154 154 154
15.500000000000 10.875000000000 50.174999237061 159 159 159
15.500000000000 10.875000000000 50.247997283936 121 121 121
15.500000000000 10.875000000000 50.319999694824 95 95 95
15.687500000000 11.000000000000 50.394996643066 144 144 144
15.687500000000 11.000000000000 50.468997955322 145 145 145
15.500000000000 10.875000000000 51.113998413086 168 168 168
15.500000000000 10.875000000000 51.187999725342 157 157 157
15.500000000000 10.875000000000 51.262996673584 162 162 162
15.500000000000 10.875000000000 51.340000152588 173 173 173
15.500000000000 10.875000000000 51.414997100830 166 166 166
15.312500000000 10.812500000000 51.736999511719 114 114 114
15.500000000000 10.875000000000 51.866996765137 149 149 149
15.250000000000 10.750000000000 51.873996734619 110 110 110
15.500000000000 10.812500000000 48.849998474121 106 106 106
15.500000000000 10.750000000000 48.939998626709 79 79 79
15.500000000000 10.750000000000 49.014999389648 86 86 86
15.500000000000 10.750000000000 49.087997436523 94 94 94
15.500000000000 10.750000000000 49.162998199463 102 102 102
15.500000000000 10.750000000000 49.238998413086 98 98 98
15.500000000000 10.750000000000 49.310997009277 97 97 97
15.500000000000 10.750000000000 49.383998870850 100 100 100
15.375000000000 10.687500000000 49.458999633789 100 100 100
15.500000000000 10.750000000000 49.527996063232 104 104 104
15.500000000000 10.750000000000 49.601997375488 105 105 105
15.500000000000 10.750000000000 49.673999786377 109 109 109
15.500000000000 10.750000000000 49.745998382568 111 111 111
15.500000000000 10.750000000000 49.816997528076 119 119 119
15.500000000000 10.750000000000 49.887996673584 133 133 133
15.500000000000 10.750000000000 49.960998535156 133 133 133
15.500000000000 10.750000000000 50.032997131348 132 132 132
15.500000000000 10.750000000000 50.104999542236 139 139 139
15.500000000000 10.750000000000 50.175998687744 147 147 147
15.500000000000 10.750000000000 50.247997283936 146 146 146
15.500000000000 10.750000000000 50.319000244141 147 147 147
15.500000000000 10.750000000000 50.390998840332 154 154 154
15.500000000000 10.750000000000 50.462997436523 145 145 145
15.500000000000 10.750000000000 50.534000396729 144 144 144
15.500000000000 10.750000000000 50.605998992920 151 151 151
15.500000000000 10.750000000000 50.677997589111 142 142 142
15.500000000000 10.750000000000 50.748996734619 134 134 134
15.500000000000 10.750000000000 50.821998596191 136 136 136
15.500000000000 10.750000000000 50.892997741699 132 132 132
15.500000000000 10.750000000000 50.965999603271 136 136 136
15.500000000000 10.750000000000 51.037998199463 137 137 137
15.500000000000 10.750000000000 51.109996795654 138 138 138
15.500000000000 10.750000000000 51.181999206543 136 136 136
15.500000000000 10.750000000000 51.255996704102 135 135 135
15.500000000000 10.750000000000 51.328998565674 140 140 140
15.437500000000 10.687500000000 51.400997161865 132 132 132
15.437500000000 10.687500000000 51.475997924805 125 125 125
15.375000000000 10.750000000000 51.538997650146 164 164 164
15.375000000000 10.687500000000 51.612998962402 114 114 114
15.437500000000 10.687500000000 51.696998596191 103 103 103
15.312500000000 10.687500000000 51.743999481201 137 137 137
15.312500000000 10.687500000000 51.824996948242 121 121 121
15.312500000000 10.625000000000 51.875999450684 96 96 96
15.625000000000 10.750000000000 48.819999694824 91 91 91
15.562500000000 10.687500000000 49.879997253418 137 137 137
15.562500000000 10.687500000000 49.952999114990 140 140 140
15.625000000000 10.750000000000 50.025997161865 148 148 148
15.625000000000 10.687500000000 50.098999023438 120 120 120
15.625000000000 10.750000000000 50.173000335693 146 146 146
15.625000000000 10.750000000000 50.245998382568 140 140 140
15.625000000000 10.750000000000 50.319999694824 104 104 104
15.625000000000 10.750000000000 50.393997192383 141 141 141
15.625000000000 10.750000000000 50.467998504639 135 135 135
15.500000000000 10.625000000000 51.043998718262 140 140 140
15.500000000000 10.625000000000 51.115997314453 196 196 196
15.500000000000 10.625000000000 51.191997528076 181 181 181
15.500000000000 10.625000000000 51.262996673584 189 189 189
15.500000000000 10.625000000000 51.335998535156 192 192 192
15.500000000000 10.625000000000 51.414997100830 166 166 166
15.437500000000 10.562500000000 51.708999633789 21 21 21
15.562500000000 10.687500000000 51.801998138428 119 119 119
15.625000000000 10.687500000000 51.890998840332 132 132 132
15.625000000000 10.562500000000 50.025997161865 104 104 104
15.625000000000 10.562500000000 50.098999023438 143 143 143
15.625000000000 10.562500000000 50.171997070313 143 143 143
15.625000000000 10.562500000000 50.244998931885 123 123 123
15.625000000000 10.562500000000 50.317996978760 90 90 90
15.625000000000 10.562500000000 50.391998291016 141 141 141
15.625000000000 10.562500000000 50.465999603271 141 141 141
15.500000000000 10.562500000000 50.971996307373 167 167 167
15.500000000000 10.437500000000 51.043998718262 190 190 190
15.500000000000 10.437500000000 51.117996215820 199 199 199
15.500000000000 10.562500000000 51.194000244141 153 153 153
15.500000000000 10.562500000000 51.266998291016 164 164 164
15.500000000000 10.437500000000 51.337997436523 197 197 197
15.500000000000 10.437500000000 51.412998199463 192 192 192
15.500000000000 10.437500000000 51.487998962402 105 105 105
15.562500000000 10.375000000000 50.243999481201 105 105 105
15.562500000000 10.375000000000 50.317996978760 128 128 128
15.562500000000 10.437500000000 50.390998840332 101 101 101
15.500000000000 10.437500000000 50.898998260498 170 170 170
15.500000000000 10.437500000000 50.970996856689 201 201 201
15.500000000000 10.437500000000 51.044998168945 196 196 196
15.500000000000 10.437500000000 51.119998931885 140 140 140
15.500000000000 10.437500000000 51.340999603271 185 185 185
15.500000000000 10.437500000000 51.413997650146 196 196 196
15.500000000000 10.437500000000 51.489997863770 188 188 188
15.500000000000 10.312500000000 50.827999114990 162 162 162
15.500000000000 10.312500000000 50.902000427246 181 181 181
15.500000000000 10.312500000000 50.973999023438 200 200 200
15.500000000000 10.312500000000 51.048999786377 113 113 113
15.500000000000 10.312500000000 51.418998718262 190 190 190
15.500000000000 10.312500000000 51.493999481201 190 190 190
15.500000000000 10.312500000000 51.570999145508 185 185 185
15.500000000000 10.125000000000 50.904998779297 48 48 48
15.500000000000 10.125000000000 50.977996826172 72 72 72
15.500000000000 10.125000000000 51.423000335693 66 66 66
15.500000000000 10.125000000000 51.500999450684 183 183 183
15.437500000000 11.312500000000 51.625999450684 205 205 205
15.375000000000 11.250000000000 51.555000305176 196 196 196
15.437500000000 11.312500000000 51.490997314453 213 213 213
15.375000000000 11.250000000000 51.030998229980 218 218 218
15.375000000000 11.250000000000 50.965999603271 215 215 215
15.375000000000 11.250000000000 50.904998779297 232 232 232
15.375000000000 11.250000000000 50.840999603271 141 141 141
15.500000000000 11.187500000000 51.559997558594 195 195 195
15.437500000000 11.187500000000 51.490997314453 208 208 208
15.500000000000 11.187500000000 51.430000305176 227 227 227
15.500000000000 11.187500000000 51.362998962402 149 149 149
15.437500000000 11.187500000000 51.095996856689 213 213 213
15.437500000000 11.187500000000 51.031997680664 217 217 217
15.437500000000 11.187500000000 50.968997955322 225 225 225
15.437500000000 11.187500000000 50.902996063232 137 137 137
15.625000000000 11.187500000000 50.350997924805 168 168 168
15.625000000000 11.187500000000 50.286998748779 195 195 195
15.625000000000 11.187500000000 50.221996307373 162 162 162
15.500000000000 11.187500000000 49.656997680664 191 191 191
15.500000000000 11.187500000000 49.593997955322 237 237 237
15.500000000000 11.187500000000 49.530998229980 255 255 255
15.437500000000 11.187500000000 49.470996856689 197 197 197
15.437500000000 11.187500000000 49.406997680664 174 174 174
15.437500000000 11.187500000000 49.345996856689 173 173 173
15.437500000000 11.187500000000 49.280998229980 173 173 173
15.375000000000 11.000000000000 51.494998931885 212 212 212
15.375000000000 11.000000000000 51.428997039795 221 221 221
15.375000000000 11.000000000000 51.361999511719 214 214 214
15.375000000000 11.000000000000 51.294998168945 187 187 187
15.375000000000 11.000000000000 51.160999298096 209 209 209
15.375000000000 11.000000000000 51.097999572754 215 215 215
15.375000000000 11.000000000000 51.034000396729 218 218 218
15.375000000000 11.000000000000 50.968997955322 119 119 119
15.625000000000 11.062500000000 50.480998992920 159 159 159
15.625000000000 11.062500000000 50.416000366211 189 189 189
15.625000000000 11.062500000000 50.350997924805 176 176 176
15.625000000000 11.062500000000 50.284000396729 116 116 116
15.625000000000 11.062500000000 50.221996307373 177 177 177
15.625000000000 11.062500000000 50.156997680664 188 188 188
15.500000000000 11.000000000000 50.092998504639 192 192 192
15.500000000000 11.000000000000 50.028999328613 188 188 188
15.625000000000 11.062500000000 49.965999603271 107 107 107
15.375000000000 11.000000000000 49.656997680664 176 176 176
15.375000000000 11.000000000000 49.593997955322 225 225 225
15.375000000000 11.000000000000 49.531997680664 231 231 231
15.375000000000 11.000000000000 49.470996856689 191 191 191
15.375000000000 11.000000000000 49.407997131348 181 181 181
15.375000000000 11.000000000000 49.345996856689 176 176 176
15.375000000000 11.000000000000 49.282997131348 186 186 186
15.375000000000 10.937500000000 51.866996765137 85 85 85
15.500000000000 10.875000000000 51.854999542236 153 153 153
15.500000000000 10.875000000000 51.430000305176 201 201 201
15.500000000000 10.875000000000 51.362998962402 200 200 200
15.500000000000 10.875000000000 51.295997619629 187 187 187
15.500000000000 10.875000000000 51.227996826172 187 187 187
15.500000000000 10.875000000000 51.163997650146 191 191 191
15.500000000000 10.875000000000 51.098999023438 195 195 195
15.500000000000 10.875000000000 51.032997131348 86 86 86
15.562500000000 10.875000000000 50.478996276855 189 189 189
15.562500000000 10.875000000000 50.413997650146 188 188 188
15.562500000000 10.875000000000 50.348999023438 195 195 195
15.500000000000 10.875000000000 50.277996063232 179 179 179
15.562500000000 10.875000000000 50.219997406006 182 182 182
15.562500000000 10.875000000000 50.155998229980 187 187 187
15.500000000000 10.937500000000 50.091999053955 206 206 206
15.562500000000 10.875000000000 50.028999328613 187 187 187
15.562500000000 10.875000000000 49.965000152588 200 200 200
15.562500000000 10.875000000000 49.900997161865 205 205 205
15.562500000000 10.875000000000 49.837997436523 181 181 181
15.500000000000 10.875000000000 49.467998504639 136 136 136
15.312500000000 10.812500000000 51.916000366211 81 81 81
15.375000000000 10.750000000000 51.865997314453 143 143 143
15.312500000000 10.812500000000 51.787998199463 114 114 114
15.312500000000 10.812500000000 51.711997985840 158 158 158
15.437500000000 10.812500000000 51.677997589111 114 114 114
15.437500000000 10.812500000000 51.612998962402 120 120 120
15.437500000000 10.812500000000 51.546997070313 122 122 122
15.437500000000 10.812500000000 51.478996276855 140 140 140
15.437500000000 10.812500000000 51.407997131348 144 144 144
15.375000000000 10.750000000000 51.334999084473 200 200 200
15.437500000000 10.812500000000 51.284996032715 160 160 160
15.437500000000 10.812500000000 51.215999603271 167 167 167
15.375000000000 10.750000000000 51.141998291016 214 214 214
15.375000000000 10.750000000000 51.083000183105 178 178 178
15.375000000000 10.750000000000 51.018997192383 184 184 184
15.437500000000 10.812500000000 50.958000183105 158 158 158
15.437500000000 10.812500000000 50.894996643066 151 151 151
15.437500000000 10.812500000000 50.831996917725 141 141 141
15.437500000000 10.812500000000 50.768997192383 150 150 150
15.437500000000 10.812500000000 50.708000183105 154 154 154
15.437500000000 10.812500000000 50.644996643066 157 157 157
15.375000000000 10.750000000000 50.581996917725 160 160 160
15.375000000000 10.750000000000 50.518997192383 142 142 142
15.437500000000 10.812500000000 50.458999633789 173 173 173
15.437500000000 10.812500000000 50.397998809814 180 180 180
15.437500000000 10.812500000000 50.335998535156 179 179 179
15.437500000000 10.812500000000 50.274997711182 175 175 175
15.500000000000 10.750000000000 50.213996887207 182 182 182
15.500000000000 10.750000000000 50.152000427246 181 181 181
15.437500000000 10.812500000000 50.088996887207 167 167 167
15.437500000000 10.812500000000 50.027000427246 163 163 163
15.437500000000 10.812500000000 49.965000152588 164 164 164
15.500000000000 10.812500000000 49.902996063232 185 185 185
15.437500000000 10.812500000000 49.841999053955 166 166 166
15.437500000000 10.812500000000 49.779998779297 164 164 164
15.437500000000 10.812500000000 49.717998504639 164 164 164
15.437500000000 10.812500000000 49.654998779297 165 165 165
15.500000000000 10.812500000000 49.591999053955 164 164 164
15.500000000000 10.812500000000 49.529998779297 169 169 169
15.500000000000 10.812500000000 49.466999053955 170 170 170
15.500000000000 10.812500000000 49.404998779297 170 170 170
15.500000000000 10.812500000000 49.342998504639 168 168 168
15.500000000000 10.812500000000 49.278999328613 172 172 172
15.437500000000 10.812500000000 49.216999053955 169 169 169
15.500000000000 10.812500000000 49.152000427246 162 162 162
15.500000000000 10.812500000000 49.085998535156 145 145 145
15.500000000000 10.687500000000 51.909000396729 157 157 157
15.500000000000 10.625000000000 51.853996276855 161 161 161
15.312500000000 10.625000000000 51.721996307373 148 148 148
15.375000000000 10.625000000000 51.675998687744 80 80 80
15.375000000000 10.625000000000 51.598999023438 113 113 113
15.375000000000 10.625000000000 51.538997650146 27 27 27
15.500000000000 10.625000000000 51.364997863770 206 206 206
15.500000000000 10.625000000000 51.298000335693 212 212 212
15.500000000000 10.625000000000 51.232997894287 224 224 224
15.500000000000 10.625000000000 51.167999267578 211 211 211
15.500000000000 10.625000000000 51.102996826172 212 212 212
15.500000000000 10.625000000000 51.037998199463 193 193 193
15.625000000000 10.687500000000 50.474998474121 179 179 179
15.625000000000 10.687500000000 50.409996032715 208 208 208
15.500000000000 10.625000000000 50.342998504639 63 63 63
15.500000000000 10.625000000000 50.278999328613 111 111 111
15.500000000000 10.625000000000 50.216999053955 113 113 113
15.625000000000 10.687500000000 50.152996063232 216 216 216
15.625000000000 10.687500000000 50.090000152588 194 194 194
15.625000000000 10.687500000000 50.027000427246 210 210 210
15.500000000000 10.625000000000 49.962997436523 202 202 202
15.500000000000 10.625000000000 49.899997711182 171 171 171
15.437500000000 10.500000000000 51.821998596191 62 62 62
15.500000000000 10.437500000000 51.434997558594 214 214 214
15.500000000000 10.437500000000 51.368999481201 218 218 218
15.500000000000 10.437500000000 51.300998687744 217 217 217
15.500000000000 10.500000000000 51.233997344971 133 133 133
15.500000000000 10.437500000000 51.171997070313 230 230 230
15.500000000000 10.500000000000 51.107997894287 226 226 226
15.500000000000 10.437500000000 51.041000366211 207 207 207
15.500000000000 10.437500000000 50.975997924805 214 214 214
15.562500000000 10.500000000000 50.409000396729 206 206 206
15.562500000000 10.500000000000 50.344997406006 204 204 204
15.562500000000 10.500000000000 50.279998779297 212 212 212
15.562500000000 10.500000000000 50.216999053955 213 213 213
15.562500000000 10.500000000000 50.152996063232 198 198 198
15.500000000000 10.500000000000 50.090000152588 133 133 133
15.500000000000 10.437500000000 51.506996154785 209 209 209
15.500000000000 10.437500000000 51.437999725342 220 220 220
15.500000000000 10.437500000000 51.368999481201 209 209 209
15.500000000000 10.437500000000 51.305999755859 152 152 152
15.500000000000 10.437500000000 51.107997894287 170 170 170
15.500000000000 10.437500000000 51.042999267578 219 219 219
15.500000000000 10.437500000000 50.977996826172 218 218 218
15.500000000000 10.437500000000 50.913997650146 234 234 234
15.500000000000 10.437500000000 50.848999023438 135 135 135
15.500000000000 10.250000000000 51.576000213623 209 209 209
15.500000000000 10.312500000000 51.510997772217 223 223 223
15.500000000000 10.312500000000 51.444000244141 227 227 227
15.500000000000 10.250000000000 51.374996185303 171 171 171
15.500000000000 10.250000000000 50.978996276855 216 216 216
15.500000000000 10.250000000000 50.916000366211 214 214 214
15.500000000000 10.312500000000 50.853996276855 239 239 239
15.500000000000 10.250000000000 50.785999298096 184 184 184
15.500000000000 10.125000000000 51.446998596191 173 173 173
15.437500000000 10.187500000000 51.613998413086 56 56 56
15.500000000000 10.125000000000 51.546997070313 158 158 158
15.500000000000 10.125000000000 51.469997406006 162 162 162
15.500000000000 10.187500000000 51.391998291016 44 44 44
15.500000000000 10.125000000000 50.949996948242 145 145 145
15.500000000000 10.125000000000 50.875999450684 162 162 162
15.500000000000 10.312500000000 51.539997100830 151 151 151
15.500000000000 10.312500000000 51.467998504639 158 158 158
15.500000000000 10.312500000000 51.389999389648 181 181 181
15.500000000000 10.312500000000 51.019996643066 165 165 165
15.500000000000 10.312500000000 50.947998046875 188 188 188
15.500000000000 10.312500000000 50.873996734619 154 154 154
15.500000000000 10.312500000000 50.802997589111 62 62 62
15.500000000000 10.437500000000 51.462997436523 155 155 155
15.500000000000 10.437500000000 51.386997222900 176 176 176
15.500000000000 10.437500000000 51.312999725342 173 173 173
15.500000000000 10.437500000000 51.092998504639 173 173 173
15.500000000000 10.437500000000 51.018997192383 174 174 174
15.500000000000 10.437500000000 50.945999145508 196 196 196
15.500000000000 10.437500000000 50.872997283936 56 56 56
15.500000000000 10.375000000000 50.292999267578 40 40 40
15.375000000000 10.562500000000 51.878997802734 125 125 125
15.500000000000 10.500000000000 51.840000152588 143 143 143
15.312500000000 10.625000000000 51.711997985840 102 102 102
15.500000000000 10.500000000000 51.458000183105 55 55 55
15.500000000000 10.500000000000 51.384998321533 163 163 163
15.500000000000 10.500000000000 51.309997558594 186 186 186
15.500000000000 10.500000000000 51.235996246338 153 153 153
15.500000000000 10.500000000000 51.164997100830 167 167 167
15.500000000000 10.500000000000 51.090999603271 178 178 178
15.500000000000 10.500000000000 51.016998291016 173 173 173
15.500000000000 10.562500000000 50.945999145508 16 16 16
15.562500000000 10.500000000000 50.439998626709 148 148 148
15.562500000000 10.500000000000 50.365997314453 162 162 162
15.562500000000 10.500000000000 50.292999267578 167 167 167
15.562500000000 10.500000000000 50.219997406006 170 170 170
15.500000000000 10.500000000000 50.146999359131 160 160 160
15.500000000000 10.500000000000 50.073997497559 112 112 112
15.250000000000 10.687500000000 51.938999176025 58 58 58
15.250000000000 10.750000000000 51.853996276855 122 122 122
15.250000000000 10.687500000000 51.787998199463 107 107 107
15.250000000000 10.750000000000 51.706996917725 149 149 149
15.437500000000 10.687500000000 51.668998718262 96 96 96
15.312500000000 10.687500000000 51.573997497559 137 137 137
15.375000000000 10.750000000000 51.505996704102 107 107 107
15.375000000000 10.750000000000 51.431999206543 93 93 93
15.375000000000 10.687500000000 51.366996765137 119 119 119
15.375000000000 10.750000000000 51.291999816895 160 160 160
15.437500000000 10.687500000000 51.223999023438 142 142 142
15.375000000000 10.750000000000 51.139999389648 170 170 170
15.437500000000 10.687500000000 51.083000183105 180 180 180
15.375000000000 10.750000000000 50.998996734619 82 82 82
15.375000000000 10.750000000000 50.925998687744 78 78 78
15.375000000000 10.750000000000 50.854999542236 76 76 76
15.375000000000 10.750000000000 50.784000396729 80 80 80
15.375000000000 10.750000000000 50.712997436523 73 73 73
15.375000000000 10.750000000000 50.641998291016 72 72 72
15.375000000000 10.750000000000 50.571998596191 74 74 74
15.375000000000 10.750000000000 50.501998901367 75 75 75
15.500000000000 10.687500000000 50.435997009277 157 157 157
15.437500000000 10.687500000000 50.362998962402 150 150 150
15.375000000000 10.750000000000 50.291000366211 114 114 114
15.375000000000 10.750000000000 50.219997406006 121 121 121
15.437500000000 10.687500000000 50.147998809814 175 175 175
15.437500000000 10.687500000000 50.076999664307 151 151 151
15.437500000000 10.687500000000 50.004997253418 166 166 166
15.437500000000 10.687500000000 49.932998657227 160 160 160
15.375000000000 10.750000000000 49.867996215820 77 77 77
15.375000000000 10.750000000000 49.799999237061 47 47 47
15.312500000000 10.812500000000 49.729999542236 24 24 24
15.312500000000 10.875000000000 51.856998443604 87 87 87
15.437500000000 10.812500000000 51.822998046875 123 123 123
15.375000000000 10.875000000000 51.726997375488 110 110 110
15.437500000000 10.812500000000 51.674999237061 103 103 103
15.437500000000 10.812500000000 51.599998474121 80 80 80
15.437500000000 10.812500000000 51.527000427246 96 96 96
15.437500000000 10.812500000000 51.449996948242 97 97 97
15.437500000000 10.812500000000 51.377998352051 106 106 106
15.437500000000 10.812500000000 51.303997039795 116 116 116
15.437500000000 10.812500000000 51.229999542236 132 132 132
15.437500000000 10.812500000000 51.155998229980 118 118 118
15.437500000000 10.812500000000 51.083000183105 109 109 109
15.437500000000 10.812500000000 51.008998870850 110 110 110
15.437500000000 10.812500000000 50.937000274658 114 114 114
15.437500000000 10.812500000000 50.864997863770 120 120 120
15.437500000000 10.812500000000 50.791999816895 119 119 119
15.437500000000 10.812500000000 50.719997406006 114 114 114
15.437500000000 10.812500000000 50.648998260498 124 124 124
15.437500000000 10.812500000000 50.576999664307 122 122 122
15.437500000000 10.812500000000 50.504997253418 126 126 126
15.437500000000 10.812500000000 50.433998107910 123 123 123
15.437500000000 10.812500000000 50.362998962402 113 113 113
15.437500000000 10.812500000000 50.291000366211 124 124 124
15.437500000000 10.812500000000 50.219997406006 123 123 123
15.437500000000 10.812500000000 50.148998260498 127 127 127
15.437500000000 10.812500000000 50.076999664307 120 120 120
15.437500000000 10.812500000000 50.005996704102 115 115 115
15.437500000000 10.812500000000 49.934997558594 125 125 125
15.437500000000 10.812500000000 49.862998962402 124 124 124
15.437500000000 10.812500000000 49.791999816895 121 121 121
15.437500000000 10.812500000000 49.720996856689 123 123 123
15.437500000000 10.812500000000 49.648998260498 121 121 121
15.437500000000 10.812500000000 49.576999664307 118 118 118
15.437500000000 10.812500000000 49.502998352051 126 126 126
15.437500000000 10.812500000000 49.432998657227 125 125 125
15.437500000000 10.812500000000 49.360996246338 120 120 120
15.437500000000 10.812500000000 49.286998748779 121 121 121
15.437500000000 10.812500000000 49.215000152588 116 116 116
15.375000000000 10.812500000000 49.143997192383 116 116 116
15.437500000000 10.812500000000 49.069000244141 119 119 119
15.437500000000 10.812500000000 48.994998931885 120 120 120
15.437500000000 10.812500000000 48.921997070313 123 123 123
15.375000000000 10.812500000000 48.546997070313 115 115 115
15.375000000000 10.812500000000 48.473999023438 111 111 111
15.562500000000 10.812500000000 51.859996795654 118 118 118
15.437500000000 10.937500000000 51.446998596191 58 58 58
15.500000000000 10.875000000000 51.380996704102 155 155 155
15.500000000000 10.875000000000 51.305000305176 152 152 152
15.500000000000 10.875000000000 51.230998992920 146 146 146
15.437500000000 10.937500000000 51.155998229980 145 145 145
15.437500000000 10.937500000000 51.083000183105 148 148 148
15.500000000000 10.875000000000 51.010997772217 17 17 17
15.625000000000 10.750000000000 50.440998077393 151 151 151
15.625000000000 10.812500000000 50.365997314453 154 154 154
15.625000000000 10.812500000000 50.292999267578 147 147 147
15.562500000000 10.812500000000 50.218997955322 138 138 138
15.562500000000 10.812500000000 50.146999359131 134 134 134
15.625000000000 10.812500000000 50.071998596191 153 153 153
15.562500000000 10.812500000000 49.999996185303 153 153 153
15.562500000000 10.812500000000 49.925998687744 155 155 155
15.562500000000 10.812500000000 49.853996276855 121 121 121
15.437500000000 10.937500000000 49.646999359131 80 80 80
15.437500000000 10.937500000000 49.576000213623 107 107 107
15.437500000000 10.937500000000 49.504997253418 109 109 109
15.437500000000 10.937500000000 49.431999206543 126 126 126
15.437500000000 10.937500000000 49.360996246338 110 110 110
15.437500000000 10.937500000000 49.287998199463 159 159 159
15.562500000000 10.812500000000 48.486999511719 43 43 43
15.375000000000 11.000000000000 51.524997711182 80 80 80
15.375000000000 11.000000000000 51.451999664307 163 163 163
15.375000000000 11.000000000000 51.377998352051 161 161 161
15.375000000000 11.000000000000 51.305000305176 149 149 149
15.375000000000 11.000000000000 51.157997131348 154 154 154
15.375000000000 11.000000000000 51.081996917725 154 154 154
15.375000000000 11.000000000000 51.008998870850 153 153 153
15.625000000000 10.937500000000 50.441997528076 155 155 155
15.625000000000 10.937500000000 50.366996765137 137 137 137
15.500000000000 10.937500000000 50.292999267578 85 85 85
15.562500000000 11.000000000000 50.219997406006 109 109 109
15.625000000000 10.937500000000 50.145996093750 169 169 169
15.500000000000 10.937500000000 50.073997497559 175 175 175
15.500000000000 10.937500000000 50.001998901367 168 168 168
15.562500000000 11.000000000000 49.926998138428 139 139 139
15.375000000000 11.000000000000 49.647998809814 114 114 114
15.375000000000 11.000000000000 49.574996948242 142 142 142
15.375000000000 11.000000000000 49.503997802734 146 146 146
15.375000000000 11.062500000000 49.433998107910 130 130 130
15.375000000000 11.000000000000 49.358997344971 146 146 146
15.375000000000 11.000000000000 49.285999298096 143 143 143
15.375000000000 11.125000000000 51.596996307373 96 96 96
15.375000000000 11.125000000000 51.527000427246 164 164 164
15.375000000000 11.125000000000 51.451999664307 193 193 193
15.375000000000 11.125000000000 51.377998352051 153 153 153
15.375000000000 11.125000000000 51.081996917725 155 155 155
15.375000000000 11.125000000000 51.009998321533 158 158 158
15.375000000000 11.125000000000 50.937000274658 153 153 153
15.625000000000 11.062500000000 50.441997528076 158 158 158
15.625000000000 11.062500000000 50.367996215820 162 162 162
15.625000000000 11.062500000000 50.293998718262 152 152 152
15.625000000000 11.062500000000 50.219997406006 162 162 162
15.625000000000 11.062500000000 50.145996093750 162 162 162
15.625000000000 11.062500000000 50.072998046875 134 134 134
15.500000000000 11.187500000000 49.645996093750 121 121 121
15.437500000000 11.187500000000 49.576000213623 143 143 143
15.437500000000 11.187500000000 49.502998352051 146 146 146
15.437500000000 11.187500000000 49.432998657227 125 125 125
15.437500000000 11.187500000000 49.357997894287 147 147 147
15.437500000000 11.187500000000 49.284996032715 144 144 144
15.375000000000 11.250000000000 51.671997070313 71 71 71
15.375000000000 11.250000000000 51.598999023438 162 162 162
15.375000000000 11.250000000000 51.520996093750 175 175 175
15.375000000000 11.250000000000 51.449996948242 153 153 153
15.375000000000 11.250000000000 51.079998016357 73 73 73
15.375000000000 11.250000000000 51.006996154785 161 161 161
15.375000000000 11.250000000000 50.933998107910 164 164 164
15.375000000000 11.250000000000 50.862998962402 143 143 143
15.625000000000 11.187500000000 50.366996765137 107 107 107
15.625000000000 11.125000000000 50.292999267578 133 133 133
15.562500000000 11.125000000000 50.218997955322 78 78 78
15.375000000000 11.375000000000 51.520996093750 86 86 86
15.375000000000 11.375000000000 51.005996704102 105 105 105
15.500000000000 10.125000000000 51.442996978760 185 185 185
15.500000000000 10.250000000000 51.572998046875 209 209 209
15.500000000000 10.250000000000 51.504997253418 223 223 223
15.500000000000 10.187500000000 51.438999176025 224 224 224
15.500000000000 10.250000000000 51.370998382568 159 159 159
15.500000000000 10.250000000000 50.973999023438 216 216 216
15.500000000000 10.250000000000 50.910999298096 206 206 206
15.500000000000 10.250000000000 50.845996856689 222 222 222
15.500000000000 10.250000000000 50.780998229980 167 167 167
15.437500000000 10.312500000000 51.499996185303 210 210 210
15.437500000000 10.312500000000 51.430999755859 215 215 215
15.437500000000 10.312500000000 51.364997863770 207 207 207
15.437500000000 10.375000000000 51.295997619629 84 84 84
15.437500000000 10.312500000000 51.037998199463 214 214 214
15.500000000000 10.375000000000 50.974998474121 227 227 227
15.500000000000 10.375000000000 50.909996032715 237 237 237
15.437500000000 10.312500000000 50.841999053955 199 199 199
15.500000000000 10.437500000000 51.492996215820 93 93 93
15.500000000000 10.437500000000 51.427997589111 216 216 216
15.500000000000 10.437500000000 51.359996795654 208 208 208
15.500000000000 10.437500000000 51.292999267578 213 213 213
15.500000000000 10.437500000000 51.166999816895 51 51 51
15.500000000000 10.437500000000 51.098999023438 207 207 207
15.500000000000 10.437500000000 51.035999298096 219 219 219
15.500000000000 10.437500000000 50.969997406006 214 214 214
15.500000000000 10.437500000000 50.903999328613 169 169 169
15.562500000000 10.437500000000 50.400997161865 175 175 175
15.562500000000 10.437500000000 50.337997436523 197 197 197
15.562500000000 10.437500000000 50.273998260498 206 206 206
15.562500000000 10.437500000000 50.210998535156 207 207 207
15.562500000000 10.437500000000 50.146999359131 146 146 146
15.312500000000 10.562500000000 51.846996307373 85 85 85
15.500000000000 10.562500000000 51.840999603271 145 145 145
15.500000000000 10.562500000000 51.779998779297 30 30 30
15.500000000000 10.562500000000 51.423999786377 184 184 184
15.500000000000 10.562500000000 51.359996795654 222 222 222
15.437500000000 10.562500000000 51.289997100830 210 210 210
15.437500000000 10.562500000000 51.224998474121 212 212 212
15.500000000000 10.562500000000 51.161998748779 213 213 213
15.500000000000 10.562500000000 51.096996307373 215 215 215
15.500000000000 10.562500000000 51.032997131348 215 215 215
15.500000000000 10.562500000000 50.968997955322 87 87 87
15.625000000000 10.562500000000 50.466999053955 183 183 183
15.625000000000 10.562500000000 50.402996063232 209 209 209
15.625000000000 10.562500000000 50.337997436523 159 159 159
15.500000000000 10.562500000000 50.270996093750 68 68 68
15.500000000000 10.562500000000 50.208000183105 189 189 189
15.562500000000 10.562500000000 50.146999359131 195 195 195
15.562500000000 10.562500000000 50.083000183105 210 210 210
15.562500000000 10.562500000000 50.019996643066 203 203 203
15.562500000000 10.562500000000 49.955997467041 142 142 142
15.312500000000 10.687500000000 51.905998229980 83 83 83
15.312500000000 10.687500000000 51.853996276855 141 141 141
15.312500000000 10.687500000000 51.781997680664 113 113 113
15.312500000000 10.687500000000 51.702999114990 158 158 158
15.437500000000 10.687500000000 51.669998168945 108 108 108
15.437500000000 10.687500000000 51.609996795654 141 141 141
15.437500000000 10.687500000000 51.550998687744 151 151 151
15.437500000000 10.687500000000 51.483997344971 140 140 140
15.437500000000 10.687500000000 51.419998168945 136 136 136
15.437500000000 10.687500000000 51.353996276855 177 177 177
15.437500000000 10.687500000000 51.287998199463 187 187 187
15.437500000000 10.687500000000 51.222999572754 192 192 192
15.437500000000 10.687500000000 51.155998229980 183 183 183
15.437500000000 10.687500000000 51.091999053955 184 184 184
15.437500000000 10.687500000000 51.022998809814 99 99 99
15.437500000000 10.687500000000 50.960998535156 100 100 100
15.437500000000 10.687500000000 50.896999359131 92 92 92
15.437500000000 10.687500000000 50.833000183105 91 91 91
15.437500000000 10.687500000000 50.768997192383 81 81 81
15.437500000000 10.687500000000 50.705997467041 70 70 70
15.437500000000 10.687500000000 50.641998291016 68 68 68
15.437500000000 10.687500000000 50.579998016357 55 55 55
15.437500000000 10.687500000000 50.518997192383 35 35 35
15.625000000000 10.750000000000 50.467998504639 178 178 178
15.625000000000 10.750000000000 50.403999328613 195 195 195
15.625000000000 10.687500000000 50.338996887207 188 188 188
15.437500000000 10.687500000000 50.267997741699 171 171 171
15.562500000000 10.750000000000 50.208999633789 188 188 188
15.437500000000 10.687500000000 50.144996643066 180 180 180
15.500000000000 10.687500000000 50.083000183105 185 185 185
15.562500000000 10.687500000000 50.019996643066 191 191 191
15.562500000000 10.687500000000 49.956996917725 208 208 208
15.562500000000 10.687500000000 49.893997192383 211 211 211
15.562500000000 10.687500000000 49.830997467041 192 192 192
15.312500000000 10.812500000000 51.912998199463 42 42 42
15.437500000000 10.812500000000 51.885997772217 152 152 152
15.437500000000 10.812500000000 51.801998138428 128 128 128
15.312500000000 10.812500000000 51.709999084473 148 148 148
15.437500000000 10.812500000000 51.671997070313 110 110 110
15.437500000000 10.875000000000 51.618999481201 77 77 77
15.437500000000 10.812500000000 51.548999786377 86 86 86
15.437500000000 10.812500000000 51.478996276855 94 94 94
15.437500000000 10.812500000000 51.416999816895 98 98 98
15.437500000000 10.875000000000 51.353996276855 156 156 156
15.500000000000 10.812500000000 51.288997650146 152 152 152
15.437500000000 10.875000000000 51.219997406006 165 165 165
15.437500000000 10.875000000000 51.154998779297 155 155 155
15.437500000000 10.812500000000 51.087997436523 142 142 142
15.437500000000 10.812500000000 51.024997711182 121 121 121
15.437500000000 10.812500000000 50.959999084473 124 124 124
15.437500000000 10.812500000000 50.896999359131 130 130 130
15.437500000000 10.812500000000 50.833000183105 133 133 133
15.437500000000 10.875000000000 50.771999359131 133 133 133
15.437500000000 10.812500000000 50.705997467041 139 139 139
15.437500000000 10.812500000000 50.642997741699 137 137 137
15.437500000000 10.812500000000 50.580997467041 142 142 142
15.437500000000 10.812500000000 50.517997741699 144 144 144
15.437500000000 10.812500000000 50.455997467041 141 141 141
15.437500000000 10.812500000000 50.392997741699 140 140 140
15.437500000000 10.812500000000 50.330997467041 140 140 140
15.437500000000 10.812500000000 50.268997192383 145 145 145
15.437500000000 10.812500000000 50.206996917725 140 140 140
15.437500000000 10.812500000000 50.144996643066 142 142 142
15.437500000000 10.812500000000 50.083000183105 139 139 139
15.437500000000 10.812500000000 50.020996093750 136 136 136
15.437500000000 10.812500000000 49.959999084473 141 141 141
15.437500000000 10.812500000000 49.897998809814 162 162 162
15.375000000000 10.812500000000 49.836997985840 153 153 153
15.375000000000 10.812500000000 49.775997161865 160 160 160
15.375000000000 10.812500000000 49.715000152588 158 158 158
15.437500000000 10.812500000000 49.652000427246 172 172 172
15.437500000000 10.812500000000 49.588996887207 167 167 167
15.437500000000 10.812500000000 49.528999328613 145 145 145
15.375000000000 10.812500000000 49.467998504639 142 142 142
15.437500000000 10.812500000000 49.404998779297 139 139 139
15.437500000000 10.812500000000 49.342998504639 139 139 139
15.375000000000 10.812500000000 49.280998229980 142 142 142
15.375000000000 10.812500000000 49.217998504639 139 139 139
15.375000000000 10.812500000000 49.154998779297 144 144 144
15.375000000000 10.812500000000 49.094997406006 142 142 142
15.500000000000 10.875000000000 51.833000183105 132 132 132
15.500000000000 10.875000000000 51.419998168945 205 205 205
15.500000000000 10.875000000000 51.354999542236 210 210 210
15.500000000000 10.875000000000 51.287998199463 195 195 195
15.437500000000 10.937500000000 51.219997406006 186 186 186
15.437500000000 10.937500000000 51.154998779297 199 199 199
15.437500000000 10.937500000000 51.090999603271 202 202 202
15.437500000000 10.937500000000 51.027000427246 188 188 188
15.625000000000 10.937500000000 50.471996307373 172 172 172
15.625000000000 10.937500000000 50.407997131348 185 185 185
15.562500000000 10.875000000000 50.341999053955 163 163 163
15.500000000000 10.937500000000 50.275997161865 100 100 100
15.562500000000 10.875000000000 50.213996887207 141 141 141
15.562500000000 10.875000000000 50.149997711182 201 201 201
15.562500000000 10.875000000000 50.085998535156 203 203 203
15.562500000000 10.875000000000 50.021999359131 189 189 189
15.500000000000 10.937500000000 49.958999633789 180 180 180
15.500000000000 10.937500000000 49.895996093750 181 181 181
15.500000000000 10.937500000000 49.831996917725 124 124 124
15.437500000000 10.937500000000 49.650997161865 59 59 59
15.437500000000 10.937500000000 49.587997436523 172 172 172
15.437500000000 10.937500000000 49.525997161865 165 165 165
15.437500000000 10.937500000000 49.465000152588 206 206 206
15.437500000000 10.937500000000 49.402000427246 137 137 137
15.437500000000 10.937500000000 49.340000152588 119 119 119
15.437500000000 10.937500000000 49.277000427246 109 109 109
15.375000000000 11.000000000000 51.485996246338 201 201 201
15.375000000000 11.000000000000 51.419998168945 216 216 216
15.375000000000 11.000000000000 51.352996826172 214 214 214
15.375000000000 11.000000000000 51.288997650146 176 176 176
15.375000000000 11.000000000000 51.154998779297 211 211 211
15.375000000000 11.000000000000 51.088996887207 217 217 217
15.375000000000 11.000000000000 51.025997161865 222 222 222
15.375000000000 11.000000000000 50.960998535156 182 182 182
15.625000000000 11.062500000000 50.472999572754 97 97 97
15.625000000000 11.062500000000 50.409000396729 192 192 192
15.625000000000 11.062500000000 50.343997955322 198 198 198
15.625000000000 11.062500000000 50.278999328613 171 171 171
15.625000000000 11.062500000000 50.215000152588 200 200 200
15.625000000000 11.062500000000 50.150997161865 182 182 182
15.500000000000 11.000000000000 50.086997985840 186 186 186
15.625000000000 11.062500000000 50.022998809814 170 170 170
15.375000000000 11.000000000000 49.649997711182 132 132 132
15.375000000000 11.000000000000 49.588996887207 221 221 221
15.375000000000 11.000000000000 49.525997161865 235 235 235
15.375000000000 11.000000000000 49.465000152588 204 204 204
15.375000000000 11.000000000000 49.402000427246 176 176 176
15.375000000000 11.000000000000 49.340000152588 173 173 173
15.375000000000 11.000000000000 49.277996063232 175 175 175
15.375000000000 11.062500000000 49.218997955322 52 52 52
15.500000000000 11.187500000000 51.552997589111 195 195 195
15.500000000000 11.187500000000 51.484996795654 205 205 205
15.500000000000 11.187500000000 51.421997070313 219 219 219
15.500000000000 11.187500000000 51.351997375488 150 150 150
15.500000000000 11.187500000000 51.090999603271 215 215 215
15.437500000000 11.187500000000 51.023998260498 216 216 216
15.437500000000 11.187500000000 50.961997985840 223 223 223
15.437500000000 11.187500000000 50.895996093750 156 156 156
15.625000000000 11.125000000000 50.345996856689 141 141 141
15.625000000000 11.187500000000 50.280998229980 178 178 178
15.562500000000 11.125000000000 50.215999603271 139 139 139
15.500000000000 11.187500000000 49.652000427246 155 155 155
15.437500000000 11.187500000000 49.590000152588 229 229 229
15.500000000000 11.187500000000 49.527000427246 255 255 255
15.437500000000 11.187500000000 49.465000152588 221 221 221
15.437500000000 11.187500000000 49.402996063232 169 169 169
15.437500000000 11.187500000000 49.340000152588 173 173 173
15.437500000000 11.187500000000 49.277000427246 171 171 171
15.375000000000 11.125000000000 49.216999053955 38 38 38
15.375000000000 11.250000000000 51.619998931885 193 193 193
15.375000000000 11.250000000000 51.551998138428 204 204 204
15.375000000000 11.250000000000 51.484996795654 220 220 220
15.375000000000 11.250000000000 51.416999816895 97 97 97
15.375000000000 11.250000000000 51.023998260498 215 215 215
15.375000000000 11.250000000000 50.959999084473 211 211 211
15.375000000000 11.250000000000 50.895996093750 225 225 225
15.375000000000 11.250000000000 50.833000183105 115 115 115
15.375000000000 11.375000000000 51.020996093750 147 147 147
15.375000000000 11.375000000000 50.956996917725 173 173 173
15.562500000000 10.187500000000 50.876998901367 162 162 162
15.562500000000 10.187500000000 50.949996948242 184 184 184
15.562500000000 10.187500000000 51.396999359131 97 97 97
15.562500000000 10.187500000000 51.471996307373 194 194 194
15.562500000000 10.187500000000 51.549999237061 191 191 191
15.500000000000 10.125000000000 51.623996734619 108 108 108
15.500000000000 10.250000000000 50.798000335693 71 71 71
15.500000000000 10.312500000000 50.873996734619 186 186 186
15.500000000000 10.312500000000 50.945999145508 193 193 193
15.500000000000 10.312500000000 51.020996093750 187 187 187
15.500000000000 10.312500000000 51.391998291016 186 186 186
15.500000000000 10.312500000000 51.468997955322 190 190 190
15.500000000000 10.312500000000 51.546997070313 186 186 186
15.562500000000 10.375000000000 50.213996887207 104 104 104
15.562500000000 10.375000000000 50.287998199463 126 126 126
15.562500000000 10.375000000000 50.361999511719 120 120 120
15.500000000000 10.437500000000 50.870998382568 85 85 85
15.500000000000 10.437500000000 50.944999694824 203 203 203
15.500000000000 10.437500000000 51.018997192383 187 187 187
15.500000000000 10.437500000000 51.093997955322 189 189 189
15.500000000000 10.437500000000 51.317996978760 175 175 175
15.500000000000 10.437500000000 51.389999389648 198 198 198
15.500000000000 10.437500000000 51.466999053955 190 190 190
15.500000000000 10.437500000000 51.541999816895 34 34 34
