26.784681320190 9.481437683105 3.942000389099 78 78 78
26.784681320190 9.481437683105 4.027998924255 169 169 169
26.769271850586 9.484029769897 4.543999671936 199 199 199
26.769271850586 9.484029769897 4.631999015808 159 159 159
26.774606704712 9.609889984131 3.939000129700 184 184 184
26.774606704712 9.609889984131 4.025000572205 176 176 176
26.774606704712 9.609889984131 4.109999656677 174 174 174
26.774606704712 9.609889984131 4.453999519348 178 178 178
26.759197235107 9.612482070923 4.539999961853 179 179 179
26.748825073242 9.550849914551 4.626999855042 169 169 169
26.882761001587 9.781827926636 3.256999015808 138 138 138
26.898170471191 9.779233932495 3.342999458313 157 157 157
26.882761001587 9.781827926636 3.429999351501 157 157 157
26.898170471191 9.779233932495 3.515999794006 145 145 145
26.764530181885 9.738342285156 4.022999763489 173 173 173
26.764530181885 9.738342285156 4.108000755310 182 182 182
26.749122619629 9.740934371948 4.192000389099 177 177 177
26.764530181885 9.738342285156 4.365000724792 89 89 89
26.764530181885 9.738342285156 4.452000617981 181 181 181
26.749122619629 9.740934371948 4.536999702454 179 179 179
26.872684478760 9.910280227661 2.998999595642 77 77 77
26.872684478760 9.910280227661 3.085000038147 151 151 151
26.872684478760 9.910280227661 3.171999931335 150 150 150
26.841867446899 9.915465354919 3.258000373840 192 192 192
26.816089630127 9.856424331665 3.343998908997 172 172 172
26.826459884644 9.918058395386 3.428999900818 154 154 154
26.888093948364 9.907687187195 3.515999794006 162 162 162
26.857276916504 9.912872314453 3.602000236511 14 14 14
26.754455566406 9.866794586182 4.108000755310 184 184 184
26.754455566406 9.866794586182 4.192000389099 180 180 180
26.754455566406 9.866794586182 4.277998924255 181 181 181
26.754455566406 9.866794586182 4.362999916077 184 184 184
26.739048004150 9.869387626648 4.447999000549 183 183 183
26.728677749634 9.807754516602 4.532000541687 80 80 80
26.862609863281 10.038731575012 2.914999961853 134 134 134
26.862609863281 10.038731575012 3.001000404358 168 168 168
26.862609863281 10.038731575012 3.088000297546 187 187 187
26.816385269165 10.046509742737 3.175000190735 136 136 136
26.759790420532 9.992654800415 3.261000633240 108 108 108
26.816385269165 10.046509742737 3.345000267029 152 152 152
26.862609863281 10.038731575012 3.431000709534 135 135 135
26.862609863281 10.038731575012 3.516999244690 189 189 189
26.862609863281 10.038731575012 3.602999687195 22 22 22
26.744380950928 9.995246887207 4.192000389099 165 165 165
26.728973388672 9.997839927673 4.275000572205 158 158 158
26.728973388672 9.997839927673 4.359999656677 152 152 152
26.703191757202 9.938799858093 4.443999290466 132 132 132
26.703191757202 9.938799858093 4.529000282288 104 104 104
26.728973388672 9.997839927673 4.619000434875 115 115 115
26.616075515747 10.080215454102 1.397999763489 189 189 189
26.662302017212 10.072437286377 1.736999511719 84 84 84
26.677709579468 10.069844245911 1.821000099182 102 102 102
26.677709579468 10.069844245911 1.911000251770 101 101 101
26.677709579468 10.069844245911 1.994999885559 110 110 110
26.693119049072 10.067251205444 2.079998970032 110 110 110
26.677709579468 10.069844245911 2.168000221252 111 111 111
26.677709579468 10.069844245911 2.252999305725 121 121 121
26.677709579468 10.069844245911 2.338000297546 134 134 134
26.677709579468 10.069844245911 2.424000740051 122 122 122
26.677709579468 10.069844245911 2.509999275208 117 117 117
26.677709579468 10.069844245911 2.593998908997 115 115 115
26.677709579468 10.069844245911 2.678000450134 108 108 108
26.662302017212 10.072437286377 2.762999534607 109 109 109
26.662302017212 10.072437286377 2.846999168396 113 113 113
26.662302017212 10.072437286377 2.931000709534 108 108 108
26.662302017212 10.072437286377 3.015000343323 108 108 108
26.646892547607 10.075029373169 3.098000526428 101 101 101
26.631484985352 10.077622413635 3.182000160217 104 104 104
26.631484985352 10.077622413635 3.265000343323 117 117 117
26.631484985352 10.077622413635 3.346999168396 115 115 115
26.631484985352 10.077622413635 3.429999351501 102 102 102
26.631484985352 10.077622413635 3.512999534607 93 93 93
26.616075515747 10.080215454102 3.595000267029 98 98 98
26.616075515747 10.080215454102 3.678000450134 94 94 94
26.605705261230 10.018581390381 3.759999275208 110 110 110
26.616075515747 10.080215454102 3.843998908997 108 108 108
26.631484985352 10.077622413635 3.926999092102 102 102 102
26.616075515747 10.080215454102 4.009999275208 73 73 73
26.631484985352 10.077622413635 4.095000267029 64 64 64
26.693119049072 10.067251205444 4.188000679016 147 147 147
26.662302017212 10.072437286377 4.268000602722 160 160 160
26.718896865845 10.126293182373 4.359000205994 158 158 158
26.662302017212 10.072437286377 4.438000679016 168 168 168
26.580221176147 10.149627685547 1.762999534607 95 95 95
26.580221176147 10.149627685547 1.847999572754 92 92 92
26.606002807617 10.208667755127 1.929999351501 72 72 72
26.636817932129 10.203481674194 2.008000373840 34 34 34
26.811643600464 10.300822257996 3.093998908997 123 123 123
26.796234130859 10.303415298462 3.179999351501 147 147 147
26.811643600464 10.300822257996 3.263998985291 151 151 151
26.796234130859 10.303415298462 3.348999977112 142 142 142
26.780826568604 10.306007385254 3.433999061584 150 150 150
26.827051162720 10.298229217529 3.519999504089 169 169 169
26.827051162720 10.298229217529 3.605000495911 34 34 34
26.724231719971 10.252152442932 4.108000755310 177 177 177
26.724231719971 10.252152442932 4.192000389099 182 182 182
26.724231719971 10.252152442932 4.277998924255 175 175 175
26.724231719971 10.252152442932 4.363999366760 171 171 171
26.739639282227 10.249559402466 4.450999259949 162 162 162
26.724231719971 10.252152442932 4.536000251770 149 149 149
26.801568984985 10.429274559021 3.266999244690 37 37 37
26.816976547241 10.426681518555 3.352000236511 155 155 155
26.816976547241 10.426681518555 3.436999320984 158 158 158
26.801568984985 10.429274559021 3.522000312805 53 53 53
26.729564666748 10.378012657166 4.025000572205 145 145 145
26.714157104492 10.380605697632 4.109000205994 180 180 180
26.714157104492 10.380605697632 4.193999290466 176 176 176
26.729564666748 10.378012657166 4.453000068665 165 165 165
26.729564666748 10.378012657166 4.539000511169 159 159 159
26.729564666748 10.378012657166 4.623999595642 147 147 147
26.704080581665 10.509057998657 4.025000572205 124 124 124
26.704080581665 10.509057998657 4.109999656677 124 124 124
26.688671112061 10.511650085449 4.192000389099 33 33 33
26.719488143921 10.506464958191 4.539000511169 116 116 116
26.734897613525 10.503871917725 4.627999305725 113 113 113
26.734897613525 10.503871917725 4.713000297546 111 111 111
26.709413528442 10.634918212891 4.109999656677 24 24 24
26.743494033813 9.424989700317 4.523999214172 183 183 183
26.743494033813 9.424989700317 3.994999885559 114 114 114
26.748825073242 9.550849914551 4.682999610901 12 12 12
26.718009948730 9.556034088135 4.602000236511 207 207 207
26.733417510986 9.553442001343 4.526000022888 213 213 213
26.718009948730 9.556034088135 4.447999000549 197 197 197
26.733417510986 9.553442001343 4.072999000549 244 244 244
26.733417510986 9.553442001343 3.998000144958 238 238 238
26.748825073242 9.550849914551 3.924000740051 227 227 227
26.707935333252 9.684487342834 4.602000236511 75 75 75
26.707935333252 9.684487342834 4.525000572205 214 214 214
26.707935333252 9.684487342834 4.449000358582 212 212 212
26.707935333252 9.684487342834 4.373000144958 196 196 196
26.723342895508 9.681894302368 4.148999214172 238 238 238
26.738752365112 9.679302215576 4.074999809265 250 250 250
26.723342895508 9.681894302368 3.998999595642 236 236 236
26.697860717773 9.812939643860 4.523999214172 136 136 136
26.697860717773 9.812939643860 4.446000099182 213 213 213
26.697860717773 9.812939643860 4.372000694275 219 219 219
26.697860717773 9.812939643860 4.294999122620 198 198 198
26.728677749634 9.807754516602 4.224999427795 235 235 235
26.713268280029 9.810346603394 4.147999763489 240 240 240
26.713268280029 9.810346603394 4.072999000549 234 234 234
26.862314224243 9.848646163940 3.490000724792 177 177 177
26.862314224243 9.848646163940 3.414999961853 179 179 179
26.831497192383 9.853831291199 3.339999198914 188 188 188
26.862314224243 9.848646163940 3.265999794006 186 186 186
26.846906661987 9.851238250732 3.190999031067 189 189 189
26.846906661987 9.851238250732 3.116999626160 126 126 126
26.687784194946 9.941392898560 4.672999382019 21 21 21
26.687784194946 9.941392898560 4.595999717712 117 117 117
26.672376632690 9.943984985352 4.516999244690 106 106 106
26.687784194946 9.941392898560 4.445000648499 167 167 167
26.687784194946 9.941392898560 4.369000434875 196 196 196
26.687784194946 9.941392898560 4.293999671936 212 212 212
26.687784194946 9.941392898560 4.220000267029 206 206 206
26.703191757202 9.938799858093 4.145998954773 214 214 214
26.836832046509 9.979690551758 3.564000129700 155 155 155
26.836832046509 9.979690551758 3.490000724792 169 169 169
26.836832046509 9.979690551758 3.414999961853 165 165 165
26.698156356812 10.003025054932 3.335999488831 175 175 175
26.713563919067 10.000432968140 3.263998985291 169 169 169
26.713563919067 10.000432968140 3.190999031067 185 185 185
26.806015014648 9.984876632690 3.117999076843 197 197 197
26.821422576904 9.982284545898 3.043000221252 168 168 168
26.836832046509 9.979690551758 2.968998908997 172 172 172
26.703489303589 10.128885269165 4.446000099182 201 201 201
26.688079833984 10.131478309631 4.367999076843 198 198 198
26.688079833984 10.131478309631 4.290999412537 200 200 200
26.688079833984 10.131478309631 4.217000007629 199 199 199
26.688079833984 10.131478309631 4.141999244690 157 157 157
26.672672271729 10.134071350098 4.064999580383 118 118 118
26.672672271729 10.134071350098 3.991000175476 124 124 124
26.672672271729 10.134071350098 3.918999671936 160 160 160
26.672672271729 10.134071350098 3.845000267029 142 142 142
26.672672271729 10.134071350098 3.772000312805 153 153 153
26.672672271729 10.134071350098 3.699000358582 159 159 159
26.672672271729 10.134071350098 3.626000404358 162 162 162
26.672672271729 10.134071350098 3.553000450134 174 174 174
26.657262802124 10.136663436890 3.480000495911 174 174 174
26.672672271729 10.134071350098 3.407999992371 164 164 164
26.657262802124 10.136663436890 3.335000038147 166 166 166
26.672672271729 10.134071350098 3.262999534607 163 163 163
26.672672271729 10.134071350098 3.190999031067 159 159 159
26.657262802124 10.136663436890 3.117999076843 153 153 153
26.657262802124 10.136663436890 3.046000480652 156 156 156
26.641855239868 10.139256477356 2.973999977112 165 165 165
26.641855239868 10.139256477356 2.901999473572 146 146 146
26.611038208008 10.144441604614 2.831000328064 148 148 148
26.611038208008 10.144441604614 2.759999275208 154 154 154
26.595630645752 10.147034645081 2.689000129700 160 160 160
26.595630645752 10.147034645081 2.616999626160 146 146 146
26.595630645752 10.147034645081 2.543999671936 142 142 142
26.611038208008 10.144441604614 2.470000267029 161 161 161
26.626445770264 10.141849517822 2.395998954773 168 168 168
26.595630645752 10.147034645081 2.327000617981 125 125 125
26.580221176147 10.149627685547 2.255999565125 120 120 120
26.580221176147 10.149627685547 2.183999061584 125 125 125
26.580221176147 10.149627685547 2.112000465393 132 132 132
26.564813613892 10.152219772339 2.039999961853 141 141 141
26.564813613892 10.152219772339 1.964999198914 143 143 143
26.580221176147 10.149627685547 1.890000343323 141 141 141
26.595630645752 10.147034645081 1.812000274658 151 151 151
26.595630645752 10.147034645081 1.736999511719 161 161 161
26.611038208008 10.144441604614 1.657999992371 164 164 164
26.611038208008 10.144441604614 1.581000328064 159 159 159
26.611038208008 10.144441604614 1.503999710083 171 171 171
26.611038208008 10.144441604614 1.427000045776 178 178 178
26.708822250366 10.254745483398 4.519999504089 217 217 217
26.693414688110 10.257337570190 4.442999839783 220 220 220
26.693414688110 10.257337570190 4.366999626160 225 225 225
26.678005218506 10.259930610657 4.289000511169 219 219 219
26.678005218506 10.259930610657 4.214999198914 230 230 230
26.708822250366 10.254745483398 4.144000053406 255 255 255
26.693414688110 10.257337570190 4.067000389099 138 138 138
26.801273345947 10.239189147949 3.560999870300 180 180 180
26.801273345947 10.239189147949 3.485999107361 181 181 181
26.755046844482 10.246967315674 3.410000801086 179 179 179
26.739639282227 10.249559402466 3.336998939514 186 186 186
26.755046844482 10.246967315674 3.263998985291 179 179 179
26.785863876343 10.241781234741 3.189999580383 194 194 194
26.785863876343 10.241781234741 3.116999626160 164 164 164
26.801273345947 10.239189147949 3.043000221252 156 156 156
26.801273345947 10.239189147949 2.968998908997 166 166 166
26.698745727539 10.383197784424 4.592999458313 210 210 210
26.698745727539 10.383197784424 4.515999794006 219 219 219
26.683338165283 10.385790824890 4.439000129700 217 217 217
26.683338165283 10.385790824890 4.213000297546 235 235 235
26.683338165283 10.385790824890 4.137999534607 234 234 234
26.698745727539 10.383197784424 4.065999031067 252 252 252
26.667930603027 10.388383865356 3.988999366760 96 96 96
26.775787353516 10.370234489441 3.557000160217 69 69 69
26.791198730469 10.367641448975 3.484000205994 191 191 191
26.775787353516 10.370234489441 3.410000801086 193 193 193
26.791198730469 10.367641448975 3.335999488831 186 186 186
26.791198730469 10.367641448975 3.262999534607 159 159 159
26.791198730469 10.367641448975 3.189000129700 153 153 153
26.704080581665 10.509057998657 4.668000221252 204 204 204
26.688671112061 10.511650085449 4.589999198914 213 213 213
26.688671112061 10.511650085449 4.513998985291 214 214 214
26.673263549805 10.514243125916 4.136000633240 235 235 235
26.673263549805 10.514243125916 4.061999320984 231 231 231
26.688671112061 10.511650085449 3.991000175476 255 255 255
26.657855987549 10.516836166382 3.912999153137 59 59 59
26.694005966187 10.637510299683 4.588999748230 179 179 179
26.678598403931 10.640103340149 4.060999870300 223 223 223
26.678598403931 10.640103340149 3.987999916077 20 20 20
26.702304840088 9.368540763855 4.547999382019 87 87 87
26.697269439697 9.432767868042 4.029000282288 43 43 43
26.702600479126 9.558628082275 4.636000633240 142 142 142
26.687192916870 9.561220169067 4.547999382019 142 142 142
26.687192916870 9.561220169067 4.460999488831 135 135 135
26.687192916870 9.561220169067 4.116000175476 81 81 81
26.702600479126 9.558628082275 4.032000541687 151 151 151
26.702600479126 9.558628082275 3.946999549866 196 196 196
26.692525863647 9.687080383301 4.551999092102 140 140 140
26.677118301392 9.689672470093 4.461998939514 140 140 140
26.677118301392 9.689672470093 4.376000404358 140 140 140
26.677118301392 9.689672470093 4.203999519348 86 86 86
26.692525863647 9.687080383301 4.119999885559 150 150 150
26.692525863647 9.687080383301 4.035000801086 149 149 149
26.677413940430 9.879758834839 4.463999748230 142 142 142
26.677413940430 9.879758834839 4.376999855042 145 145 145
26.677413940430 9.879758834839 4.290999412537 134 134 134
26.677413940430 9.879758834839 4.206000328064 147 147 147
26.677413940430 9.879758834839 4.120999336243 149 149 149
26.821126937866 9.792198181152 3.530999183655 46 46 46
26.836536407471 9.789606094360 3.445000648499 124 124 124
26.821126937866 9.792198181152 3.359000205994 126 126 126
26.821126937866 9.792198181152 3.272000312805 128 128 128
26.805719375610 9.794790267944 3.186999320984 76 76 76
26.590297698975 10.021174430847 4.623000144958 106 106 106
26.590297698975 10.021174430847 4.536999702454 95 95 95
26.590297698975 10.021174430847 4.452000617981 104 104 104
26.605705261230 10.018581390381 4.367999076843 96 96 96
26.590297698975 10.021174430847 4.282000541687 98 98 98
26.600667953491 10.082807540894 4.196000099182 108 108 108
26.585260391235 10.085400581360 4.112000465393 107 107 107
26.585260391235 10.085400581360 4.027998924255 102 102 102
26.585260391235 10.085400581360 3.945000648499 105 105 105
26.585260391235 10.085400581360 3.860999107361 107 107 107
26.569850921631 10.087993621826 3.776999473572 112 112 112
26.569850921631 10.087993621826 3.693999290466 121 121 121
26.569850921631 10.087993621826 3.610999107361 121 121 121
26.569850921631 10.087993621826 3.529000282288 118 118 118
26.569850921631 10.087993621826 3.446000099182 119 119 119
26.569850921631 10.087993621826 3.362999916077 111 111 111
26.554443359375 10.090585708618 3.280999183655 108 108 108
26.554443359375 10.090585708618 3.197999000549 120 120 120
26.539033889771 10.093178749084 3.116000175476 125 125 125
26.554443359375 10.090585708618 3.033999443054 131 131 131
26.554443359375 10.090585708618 2.949999809265 171 171 171
26.554443359375 10.090585708618 2.867999076843 121 121 121
26.554443359375 10.090585708618 2.785000801086 113 113 113
26.554443359375 10.090585708618 2.702000617981 119 119 119
26.549404144287 10.154812812805 2.620999336243 108 108 108
26.549404144287 10.154812812805 2.536999702454 107 107 107
26.533996582031 10.157405853271 2.454998970032 102 102 102
26.549404144287 10.154812812805 2.370999336243 106 106 106
26.533996582031 10.157405853271 2.287999153137 107 107 107
26.533996582031 10.157405853271 2.203999519348 109 109 109
26.533996582031 10.157405853271 2.119999885559 109 109 109
26.518587112427 10.159997940063 2.036999702454 108 108 108
26.518587112427 10.159997940063 1.952000617981 110 110 110
26.533996582031 10.157405853271 1.864000320435 119 119 119
26.518587112427 10.159997940063 1.781000137329 132 132 132
26.533996582031 10.157405853271 1.689999580383 159 159 159
26.549404144287 10.154812812805 1.598999977112 162 162 162
26.549404144287 10.154812812805 1.512999534607 154 154 154
26.518587112427 10.159997940063 1.434000015259 166 166 166
26.657262802124 10.136663436890 4.463999748230 146 146 146
26.657262802124 10.136663436890 4.376999855042 150 150 150
26.657262802124 10.136663436890 4.292000770569 158 158 158
26.657262802124 10.136663436890 4.206999778748 156 156 156
26.641855239868 10.139256477356 4.119999885559 114 114 114
26.780530929565 10.115921974182 3.535000801086 141 141 141
26.795938491821 10.113328933716 3.449000358582 125 125 125
26.672672271729 10.134071350098 3.365000724792 147 147 147
26.652227401733 10.200889587402 3.280999183655 127 127 127
26.688079833984 10.131478309631 3.196000099182 142 142 142
26.795938491821 10.113328933716 3.106999397278 119 119 119
26.780530929565 10.115921974182 3.022000312805 170 170 170
26.780530929565 10.115921974182 2.935999870300 130 130 130
26.621410369873 10.206074714661 1.756999969482 19 19 19
26.616373062134 10.270301818848 1.670999526978 36 36 36
26.729269027710 10.187925338745 1.458999633789 217 217 217
26.662597656250 10.262523651123 4.550999641418 147 147 147
26.647188186646 10.265115737915 4.463000297546 155 155 155
26.662597656250 10.262523651123 4.379000663757 154 154 154
26.642150878906 10.329341888428 4.204998970032 156 156 156
26.657558441162 10.326749801636 4.122000694275 166 166 166
26.642150878906 10.329341888428 4.036000251770 83 83 83
26.770456314087 10.244374275208 3.536000251770 133 133 133
26.724231719971 10.252152442932 3.449999809265 107 107 107
26.708822250366 10.254745483398 3.366000175476 111 111 111
26.739639282227 10.249559402466 3.280999183655 139 139 139
26.755046844482 10.246967315674 3.195000648499 162 162 162
26.703784942627 10.318971633911 3.112000465393 124 124 124
26.770456314087 10.244374275208 3.023999214172 107 107 107
26.770456314087 10.244374275208 2.938000679016 70 70 70
26.667930603027 10.388383865356 4.638998985291 144 144 144
26.652523040771 10.390975952148 4.550999641418 156 156 156
26.662893295288 10.452609062195 4.464999198914 156 156 156
26.647485733032 10.455202102661 4.206999778748 71 71 71
26.647485733032 10.455202102661 4.120999336243 159 159 159
26.647485733032 10.455202102661 4.036999702454 162 162 162
26.647485733032 10.455202102661 3.953000068665 19 19 19
26.760379791260 10.372827529907 3.536000251770 110 110 110
26.760379791260 10.372827529907 3.450999259949 133 133 133
26.744972229004 10.375419616699 3.366000175476 136 136 136
26.744972229004 10.375419616699 3.280999183655 123 123 123
26.760379791260 10.372827529907 3.196000099182 79 79 79
26.673263549805 10.514243125916 4.727000236511 100 100 100
26.683633804321 10.575876235962 4.640000343323 154 154 154
26.668226242065 10.578469276428 4.550999641418 157 157 157
26.637409210205 10.583654403687 4.120999336243 98 98 98
26.652816772461 10.581062316895 4.039000511169 160 160 160
26.652816772461 10.581062316895 3.953999519348 157 157 157
26.734897613525 10.503871917725 3.277998924255 32 32 32
26.734897613525 10.503871917725 3.362999916077 75 75 75
26.662893295288 10.452609062195 3.949999809265 149 149 149
26.673263549805 10.514243125916 4.035000801086 180 180 180
26.673263549805 10.514243125916 4.120999336243 182 182 182
26.673263549805 10.514243125916 4.376000404358 99 99 99
26.688671112061 10.511650085449 4.463999748230 159 159 159
26.704080581665 10.509057998657 4.551999092102 161 161 161
26.744972229004 10.375419616699 3.022999763489 15 15 15
26.714157104492 10.380605697632 3.109000205994 161 161 161
26.770751953125 10.434459686279 3.192000389099 135 135 135
26.786159515381 10.431867599487 3.276999473572 144 144 144
26.729564666748 10.378012657166 3.362000465393 137 137 137
26.786159515381 10.431867599487 3.447999000549 166 166 166
26.770751953125 10.434459686279 3.532999992371 38 38 38
26.672967910767 10.324156761169 4.036000251770 173 173 173
26.672967910767 10.324156761169 4.120999336243 182 182 182
26.672967910767 10.324156761169 4.206000328064 181 181 181
26.657558441162 10.326749801636 4.289999961853 103 103 103
26.688375473022 10.321563720703 4.379000663757 160 160 160
26.698745727539 10.383197784424 4.466000556946 166 166 166
26.606002807617 10.208667755127 1.668999671936 141 141 141
26.606002807617 10.208667755127 1.756999969482 130 130 130
26.590593338013 10.211259841919 1.845999717712 112 112 112
26.606002807617 10.208667755127 1.931000709534 110 110 110
26.590593338013 10.211259841919 2.020998954773 102 102 102
26.590593338013 10.211259841919 2.103999137878 96 96 96
26.564813613892 10.152219772339 2.193999290466 92 92 92
26.564813613892 10.152219772339 2.279999732971 91 91 91
26.549404144287 10.154812812805 2.366000175476 106 106 106
26.549404144287 10.154812812805 2.450999259949 103 103 103
26.549404144287 10.154812812805 2.533999443054 94 94 94
26.564813613892 10.152219772339 2.616000175476 89 89 89
26.549404144287 10.154812812805 2.699999809265 89 89 89
26.533996582031 10.157405853271 2.785000801086 86 86 86
26.549404144287 10.154812812805 2.866000175476 91 91 91
26.549404144287 10.154812812805 2.949999809265 114 114 114
26.533996582031 10.157405853271 3.032999992371 121 121 121
26.564813613892 10.152219772339 3.113999366760 130 130 130
26.564813613892 10.152219772339 3.196999549866 106 106 106
26.606002807617 10.208667755127 3.279000282288 98 98 98
26.606002807617 10.208667755127 3.362000465393 98 98 98
26.652227401733 10.200889587402 3.446000099182 132 132 132
26.636817932129 10.203481674194 3.529999732971 106 106 106
26.549404144287 10.154812812805 3.609000205994 59 59 59
26.549404144287 10.154812812805 3.692000389099 68 68 68
26.564813613892 10.152219772339 3.776000022888 52 52 52
26.667634963989 10.198296546936 4.122000694275 178 178 178
26.667634963989 10.198296546936 4.206999778748 177 177 177
26.667634963989 10.198296546936 4.290999412537 176 176 176
26.683044433594 10.195703506470 4.380000114441 166 166 166
26.790903091431 10.177555084229 2.846999168396 125 125 125
26.806310653687 10.174962997437 2.932000160217 172 172 172
26.790903091431 10.177555084229 3.019000053406 180 180 180
26.790903091431 10.177555084229 3.105000495911 151 151 151
26.693119049072 10.067251205444 3.192999839783 134 134 134
26.693119049072 10.067251205444 3.276999473572 143 143 143
26.780530929565 10.115921974182 3.362000465393 128 128 128
26.749713897705 10.121107101440 3.446999549866 146 146 146
26.677709579468 10.069844245911 3.529999732971 102 102 102
26.662302017212 10.072437286377 3.612999916077 82 82 82
26.646892547607 10.075029373169 3.696999549866 89 89 89
26.646892547607 10.075029373169 3.780999183655 92 92 92
26.646892547607 10.075029373169 3.865000724792 119 119 119
26.646892547607 10.075029373169 3.949999809265 104 104 104
26.646892547607 10.075029373169 4.033999443054 116 116 116
26.662302017212 10.072437286377 4.119999885559 128 128 128
26.662302017212 10.072437286377 4.204998970032 143 143 143
26.662302017212 10.072437286377 4.289999961853 125 125 125
26.662302017212 10.072437286377 4.376000404358 125 125 125
26.662302017212 10.072437286377 4.460999488831 117 117 117
26.646892547607 10.075029373169 4.544999122620 122 122 122
26.662302017212 10.072437286377 4.631999015808 23 23 23
26.816385269165 10.046509742737 2.932000160217 127 127 127
26.816385269165 10.046509742737 3.018000602722 143 143 143
26.790607452393 9.987468719482 3.103999137878 171 171 171
26.790607452393 9.987468719482 3.189999580383 172 172 172
26.775197982788 9.990062713623 3.276000022888 139 139 139
26.759790420532 9.992654800415 3.362000465393 164 164 164
26.816385269165 10.046509742737 3.447999000549 143 143 143
26.831792831421 10.043916702271 3.533999443054 35 35 35
26.687784194946 9.941392898560 4.039000511169 131 131 131
26.703191757202 9.938799858093 4.126000404358 185 185 185
26.703191757202 9.938799858093 4.210999488831 184 184 184
26.687784194946 9.941392898560 4.296000480652 185 185 185
26.687784194946 9.941392898560 4.381999015808 181 181 181
26.687784194946 9.941392898560 4.467999458313 14 14 14
26.826459884644 9.918058395386 3.102999687195 120 120 120
26.841867446899 9.915465354919 3.189000129700 151 151 151
26.826459884644 9.918058395386 3.275000572205 152 152 152
26.841867446899 9.915465354919 3.362000465393 155 155 155
26.841867446899 9.915465354919 3.447999000549 161 161 161
26.697860717773 9.812939643860 3.953999519348 139 139 139
26.713268280029 9.810346603394 4.040999412537 187 187 187
26.713268280029 9.810346603394 4.127999305725 187 187 187
26.697860717773 9.812939643860 4.296999931335 143 143 143
26.697860717773 9.812939643860 4.383999824524 187 187 187
26.713268280029 9.810346603394 4.470999717712 185 185 185
26.692525863647 9.687080383301 3.869000434875 128 128 128
26.707935333252 9.684487342834 3.956000328064 187 187 187
26.723342895508 9.681894302368 4.043000221252 181 181 181
26.723342895508 9.681894302368 4.386000633240 171 171 171
26.723342895508 9.681894302368 4.473999977112 181 181 181
26.723342895508 9.681894302368 4.560999870300 178 178 178
26.733417510986 9.553442001343 3.870999336243 130 130 130
26.733417510986 9.553442001343 3.956999778748 179 179 179
26.718009948730 9.556034088135 4.473000526428 199 199 199
26.733417510986 9.553442001343 4.561999320984 178 178 178
26.718009948730 9.556034088135 4.647000312805 82 82 82
26.683633804321 10.575876235962 4.671999931335 107 107 107
26.699041366577 10.573284149170 4.586998939514 143 143 143
26.683633804321 10.575876235962 4.498999595642 145 145 145
26.663188934326 10.642696380615 4.067999839783 118 118 118
26.678598403931 10.640103340149 3.984000205994 147 147 147
26.663188934326 10.642696380615 3.900000572205 140 140 140
26.678300857544 10.450016021729 4.581999778748 107 107 107
26.678300857544 10.450016021729 4.495999336243 151 151 151
26.693710327148 10.447423934937 4.411000251770 151 151 151
26.662893295288 10.452609062195 4.151999473572 104 104 104
26.662893295288 10.452609062195 4.067000389099 145 145 145
26.662893295288 10.452609062195 3.981999397278 150 150 150
26.770751953125 10.434459686279 3.478999137878 131 131 131
26.786159515381 10.431867599487 3.394000053406 126 126 126
26.786159515381 10.431867599487 3.307999610901 128 128 128
26.786159515381 10.431867599487 3.223000526428 111 111 111
26.755344390869 10.437052726746 3.138998985291 92 92 92
26.786159515381 10.431867599487 3.051999092102 15 15 15
26.688375473022 10.321563720703 4.494000434875 111 111 111
26.703784942627 10.318971633911 4.410000801086 150 150 150
26.672967910767 10.324156761169 4.321000099182 147 147 147
26.672967910767 10.324156761169 4.234999656677 104 104 104
26.672967910767 10.324156761169 4.148999214172 141 141 141
26.672967910767 10.324156761169 4.064000129700 146 146 146
26.785863876343 10.241781234741 3.476000785828 123 123 123
26.765417098999 10.308600425720 3.390999794006 90 90 90
26.734601974487 10.313785552979 3.306000709534 112 112 112
26.734601974487 10.313785552979 3.220999717712 171 171 171
26.780826568604 10.306007385254 3.134999275208 157 157 157
26.785863876343 10.241781234741 3.047999382019 122 122 122
26.785863876343 10.241781234741 2.961998939514 122 122 122
26.780826568604 10.306007385254 2.876999855042 98 98 98
26.683044433594 10.195703506470 4.404999732971 96 96 96
26.683044433594 10.195703506470 4.318999290466 122 122 122
26.683044433594 10.195703506470 4.233000755310 138 138 138
26.683044433594 10.195703506470 4.147999763489 143 143 143
26.667634963989 10.198296546936 3.808999061584 14 14 14
26.667634963989 10.198296546936 3.723999977112 28 28 28
26.667634963989 10.198296546936 3.640000343323 51 51 51
26.667634963989 10.198296546936 3.556000709534 56 56 56
26.729269027710 10.187925338745 3.473000526428 157 157 157
26.713861465454 10.190518379211 3.387999534607 113 113 113
26.636817932129 10.203481674194 3.304999351501 96 96 96
26.683044433594 10.195703506470 3.220000267029 112 112 112
26.636817932129 10.203481674194 3.137999534607 107 107 107
26.713861465454 10.190518379211 3.050000190735 124 124 124
26.713861465454 10.190518379211 2.966000556946 141 141 141
26.683044433594 10.195703506470 2.881999015808 118 118 118
26.636817932129 10.203481674194 2.803000450134 79 79 79
26.636817932129 10.203481674194 2.717999458313 88 88 88
26.636817932129 10.203481674194 2.634999275208 98 98 98
26.636817932129 10.203481674194 2.550000190735 101 101 101
26.636817932129 10.203481674194 2.464999198914 109 109 109
26.621410369873 10.206074714661 2.381999015808 117 117 117
26.621410369873 10.206074714661 2.297999382019 129 129 129
26.616373062134 10.270301818848 2.213999748230 141 141 141
26.621410369873 10.206074714661 2.126999855042 143 143 143
26.631780624390 10.267708778381 2.042000770569 142 142 142
26.616373062134 10.270301818848 1.784999847412 138 138 138
26.600963592529 10.272893905640 1.698999404907 128 128 128
26.616373062134 10.270301818848 1.611000061035 134 134 134
26.600963592529 10.272893905640 1.526000022888 138 138 138
26.600963592529 10.272893905640 1.434000015259 122 122 122
26.600667953491 10.082807540894 4.560000419617 97 97 97
26.585260391235 10.085400581360 4.473000526428 90 90 90
26.585260391235 10.085400581360 4.388998985291 92 92 92
26.585260391235 10.085400581360 4.303000450134 91 91 91
26.585260391235 10.085400581360 4.220000267029 92 92 92
26.569850921631 10.087993621826 4.133999824524 121 121 121
26.585260391235 10.085400581360 4.050999641418 108 108 108
26.569850921631 10.087993621826 3.967000007629 98 98 98
26.569850921631 10.087993621826 3.883000373840 107 107 107
26.569850921631 10.087993621826 3.800000190735 84 84 84
26.554443359375 10.090585708618 3.717000007629 101 101 101
26.569850921631 10.087993621826 3.633999824524 107 107 107
26.554443359375 10.090585708618 3.550999641418 100 100 100
26.600667953491 10.082807540894 3.470000267029 126 126 126
26.600667953491 10.082807540894 3.386000633240 107 107 107
26.600667953491 10.082807540894 3.303000450134 105 105 105
26.616075515747 10.080215454102 3.220000267029 116 116 116
26.585260391235 10.085400581360 3.137999534607 103 103 103
26.616075515747 10.080215454102 3.053000450134 114 114 114
26.549404144287 10.154812812805 2.973999977112 70 70 70
26.564813613892 10.152219772339 2.890999794006 66 66 66
26.549404144287 10.154812812805 2.808999061584 63 63 63
26.533996582031 10.157405853271 2.727999687195 61 61 61
26.533996582031 10.157405853271 2.645998954773 65 65 65
26.533996582031 10.157405853271 2.563000679016 61 61 61
26.549404144287 10.154812812805 2.477999687195 45 45 45
26.549404144287 10.154812812805 2.393000602722 26 26 26
26.692821502686 9.877165794373 4.404999732971 136 136 136
26.692821502686 9.877165794373 4.318999290466 137 137 137
26.692821502686 9.877165794373 4.233000755310 60 60 60
26.708230972290 9.874572753906 4.148999214172 140 140 140
26.708230972290 9.874572753906 4.063000679016 138 138 138
26.723638534546 9.871980667114 3.978999137878 35 35 35
26.836536407471 9.789606094360 3.383999824524 79 79 79
26.836536407471 9.789606094360 3.296999931335 95 95 95
26.836536407471 9.789606094360 3.210999488831 41 41 41
26.718305587769 9.746120452881 4.494999885559 134 134 134
26.718305587769 9.746120452881 4.407000541687 130 130 130
26.718305587769 9.746120452881 4.321000099182 61 61 61
26.718305587769 9.746120452881 4.064000129700 140 140 140
26.733713150024 9.743528366089 3.978999137878 142 142 142
26.718305587769 9.746120452881 3.893000602722 75 75 75
26.718009948730 9.556034088135 4.582999229431 124 124 124
26.733417510986 9.553442001343 4.497000694275 176 176 176
26.718009948730 9.556034088135 4.407999992371 89 89 89
26.718009948730 9.556034088135 3.978999137878 144 144 144
26.718009948730 9.556034088135 3.893000602722 182 182 182
26.718009948730 9.556034088135 3.807999610901 19 19 19
26.688968658447 10.701736450195 4.527998924255 207 207 207
26.673559188843 10.704328536987 4.001999855042 246 246 246
26.658151626587 10.706921577454 3.926999092102 200 200 200
26.688671112061 10.511650085449 4.606999397278 203 203 203
26.688671112061 10.511650085449 4.529999732971 214 214 214
26.688671112061 10.511650085449 4.453000068665 212 212 212
26.673263549805 10.514243125916 4.074999809265 240 240 240
26.673263549805 10.514243125916 4.001000404358 238 238 238
26.657855987549 10.516836166382 3.925999641418 233 233 233
26.698745727539 10.383197784424 4.527998924255 208 208 208
26.683338165283 10.385790824890 4.450999259949 215 215 215
26.683338165283 10.385790824890 4.373999595642 216 216 216
26.667930603027 10.388383865356 4.296999931335 87 87 87
26.667930603027 10.388383865356 4.147999763489 236 236 236
26.667930603027 10.388383865356 4.072999000549 235 235 235
26.667930603027 10.388383865356 3.998999595642 232 232 232
26.775787353516 10.370234489441 3.491000175476 181 181 181
26.775787353516 10.370234489441 3.418000221252 191 191 191
26.775787353516 10.370234489441 3.343998908997 165 165 165
26.775787353516 10.370234489441 3.269999504089 177 177 177
26.775787353516 10.370234489441 3.196000099182 157 157 157
26.714157104492 10.380605697632 3.123000144958 203 203 203
26.786159515381 10.431867599487 3.047999382019 138 138 138
26.693414688110 10.257337570190 4.449000358582 203 203 203
26.693414688110 10.257337570190 4.373999595642 219 219 219
26.693414688110 10.257337570190 4.297999382019 224 224 224
26.678005218506 10.259930610657 4.220000267029 221 221 221
26.678005218506 10.259930610657 4.145998954773 226 226 226
26.678005218506 10.259930610657 4.072999000549 226 226 226
26.801273345947 10.239189147949 3.491000175476 188 188 188
26.801273345947 10.239189147949 3.417000770569 156 156 156
26.739639282227 10.249559402466 3.339999198914 173 173 173
26.739639282227 10.249559402466 3.266999244690 189 189 189
26.785863876343 10.241781234741 3.193999290466 129 129 129
26.724231719971 10.252152442932 3.119999885559 181 181 181
26.785863876343 10.241781234741 3.046000480652 173 173 173
26.785863876343 10.241781234741 2.971999168396 171 171 171
26.785863876343 10.241781234741 2.897999763489 181 181 181
26.616373062134 10.270301818848 2.249999046326 14 14 14
26.616373062134 10.270301818848 2.176999092102 71 71 71
26.616373062134 10.270301818848 2.102000236511 122 122 122
26.616373062134 10.270301818848 2.029000282288 141 141 141
26.616373062134 10.270301818848 1.953999519348 150 150 150
26.616373062134 10.270301818848 1.880999565125 153 153 153
26.616373062134 10.270301818848 1.805999755859 163 163 163
26.600963592529 10.272893905640 1.731999397278 163 163 163
26.600963592529 10.272893905640 1.656000137329 169 169 169
26.600963592529 10.272893905640 1.581000328064 170 170 170
26.600963592529 10.272893905640 1.503999710083 169 169 169
26.600963592529 10.272893905640 1.425999641418 160 160 160
26.672672271729 10.134071350098 4.596999168396 111 111 111
26.657262802124 10.136663436890 4.516999244690 116 116 116
26.657262802124 10.136663436890 4.440999031067 117 117 117
26.569850921631 10.087993621826 4.349999427795 184 184 184
26.626445770264 10.141849517822 4.285000801086 117 117 117
26.626445770264 10.141849517822 4.210000038147 145 145 145
26.569850921631 10.087993621826 4.127999305725 186 186 186
26.595630645752 10.147034645081 4.057999610901 103 103 103
26.580221176147 10.149627685547 3.983000755310 83 83 83
26.595630645752 10.147034645081 3.911000251770 74 74 74
26.595630645752 10.147034645081 3.838999748230 83 83 83
26.595630645752 10.147034645081 3.765999794006 81 81 81
26.580221176147 10.149627685547 3.692000389099 97 97 97
26.564813613892 10.152219772339 3.619000434875 109 109 109
26.580221176147 10.149627685547 3.547999382019 126 126 126
26.611038208008 10.144441604614 3.477999687195 155 155 155
26.641855239868 10.139256477356 3.407000541687 151 151 151
26.626445770264 10.141849517822 3.335000038147 156 156 156
26.626445770264 10.141849517822 3.262999534607 153 153 153
26.626445770264 10.141849517822 3.189999580383 158 158 158
26.611038208008 10.144441604614 3.117999076843 157 157 157
26.626445770264 10.141849517822 3.046000480652 153 153 153
26.626445770264 10.141849517822 2.973999977112 164 164 164
26.626445770264 10.141849517822 2.901999473572 165 165 165
26.641855239868 10.139256477356 2.828999519348 153 153 153
26.641855239868 10.139256477356 2.756999015808 133 133 133
26.641855239868 10.139256477356 2.683999061584 124 124 124
26.641855239868 10.139256477356 2.612000465393 123 123 123
26.641855239868 10.139256477356 2.539000511169 105 105 105
26.626445770264 10.141849517822 2.467000007629 103 103 103
26.626445770264 10.141849517822 2.393000602722 85 85 85
26.641855239868 10.139256477356 2.318999290466 75 75 75
26.626445770264 10.141849517822 2.248000144958 58 58 58
26.687784194946 9.941392898560 4.373000144958 214 214 214
26.687784194946 9.941392898560 4.297999382019 213 213 213
26.687784194946 9.941392898560 4.223000526428 213 213 213
26.703191757202 9.938799858093 4.151000022888 239 239 239
26.703191757202 9.938799858093 4.074999809265 230 230 230
26.836832046509 9.979690551758 3.491000175476 178 178 178
26.836832046509 9.979690551758 3.415999412537 168 168 168
26.759790420532 9.992654800415 3.338999748230 199 199 199
26.775197982788 9.990062713623 3.265000343323 181 181 181
26.821422576904 9.982284545898 3.192000389099 174 174 174
26.806015014648 9.984876632690 3.116999626160 189 189 189
26.821422576904 9.982284545898 3.043000221252 175 175 175
26.821422576904 9.982284545898 2.967999458313 141 141 141
26.697860717773 9.812939643860 4.449999809265 211 211 211
26.713268280029 9.810346603394 4.376999855042 213 213 213
26.697860717773 9.812939643860 4.299000740051 210 210 210
26.728677749634 9.807754516602 4.152998924255 245 245 245
26.713268280029 9.810346603394 4.075999259949 240 240 240
26.728677749634 9.807754516602 4.001999855042 242 242 242
26.846906661987 9.851238250732 3.414999961853 152 152 152
26.846906661987 9.851238250732 3.339999198914 179 179 179
26.846906661987 9.851238250732 3.265000343323 176 176 176
26.846906661987 9.851238250732 3.190999031067 134 134 134
26.707935333252 9.684487342834 4.529999732971 200 200 200
26.707935333252 9.684487342834 4.453999519348 209 209 209
26.707935333252 9.684487342834 4.379000663757 211 211 211
26.723342895508 9.681894302368 4.078999519348 250 250 250
26.723342895508 9.681894302368 4.004000663757 239 239 239
26.723342895508 9.681894302368 3.928999900818 246 246 246
26.723342895508 9.681894302368 3.853999137878 176 176 176
26.733417510986 9.553442001343 4.616000175476 186 186 186
26.733417510986 9.553442001343 4.536999702454 204 204 204
26.733417510986 9.553442001343 4.460999488831 216 216 216
26.733417510986 9.553442001343 4.004000663757 222 222 222
26.748825073242 9.550849914551 3.932999610901 235 235 235
26.733417510986 9.553442001343 3.855000495911 185 185 185
