12.042620658875 15.624456405640 4.193999290466 151 151 151
12.011371612549 15.624659538269 4.730000495911 136 136 136
12.012181282043 15.749657630920 4.022999763489 19 19 19
12.043430328369 15.749454498291 4.106999397278 255 255 255
12.027805328369 15.749555587769 4.195000648499 247 247 247
12.043430328369 15.749454498291 4.280999183655 205 205 205
12.012181282043 15.749657630920 4.637999534607 182 182 182
11.996556282043 15.749758720398 4.730000495911 191 191 191
11.996556282043 15.749758720398 4.818999290466 197 197 197
11.997365951538 15.874755859375 4.108000755310 25 25 25
12.012990951538 15.874654769897 4.193999290466 250 250 250
12.012990951538 15.874654769897 4.280999183655 236 236 236
12.028614997864 15.874552726746 4.366000175476 200 200 200
12.012990951538 15.874654769897 4.546999931335 97 97 97
12.012990951538 15.874654769897 4.633999824524 197 197 197
11.997365951538 15.874755859375 4.724999427795 197 197 197
11.951707839966 16.062555313110 3.418000221252 163 163 163
11.936082839966 16.062656402588 3.505000114441 177 177 177
11.936082839966 16.062656402588 3.591000556946 195 195 195
11.936082839966 16.062656402588 3.678000450134 193 193 193
11.920458793640 16.062757492065 3.765999794006 194 194 194
11.998581886292 16.062252044678 4.192999839783 58 58 58
12.014206886292 16.062150955200 4.279000282288 237 237 237
12.014206886292 16.062150955200 4.365000724792 228 228 228
11.998581886292 16.062252044678 4.454998970032 191 191 191
12.014206886292 16.062150955200 4.539999961853 198 198 198
12.014206886292 16.062150955200 4.630999565125 201 201 201
12.014206886292 16.062150955200 4.720000267029 139 139 139
11.921268463135 16.187755584717 3.244999885559 161 161 161
11.905643463135 16.187856674194 3.331000328064 167 167 167
11.921268463135 16.187755584717 3.417000770569 196 196 196
11.921268463135 16.187755584717 3.504000663757 182 182 182
11.952517509460 16.187553405762 3.588999748230 181 181 181
11.936892509460 16.187654495239 3.675999641418 185 185 185
11.890018463135 16.187957763672 3.765999794006 182 182 182
11.999391555786 16.187248229980 4.363999366760 234 234 234
12.015016555786 16.187147140503 4.449999809265 216 216 216
12.015016555786 16.187147140503 4.536999702454 211 211 211
11.999391555786 16.187248229980 4.626999855042 199 199 199
12.015016555786 16.187147140503 4.803999900818 19 19 19
12.047480583191 16.374441146851 1.342000007629 85 85 85
12.063105583191 16.374340057373 1.611999511719 52 52 52
12.062700271606 16.311841964722 1.701000213623 66 66 66
12.078324317932 16.311740875244 1.789999961853 79 79 79
12.047075271606 16.311943054199 1.875000000000 90 90 90
12.062700271606 16.311841964722 1.963999748230 108 108 108
12.047075271606 16.311943054199 2.047999382019 127 127 127
12.047075271606 16.311943054199 2.134999275208 144 144 144
12.047075271606 16.311943054199 2.220999717712 170 170 170
12.062700271606 16.311841964722 2.308999061584 175 175 175
12.062700271606 16.311841964722 2.394999504089 176 176 176
12.062700271606 16.311841964722 2.480000495911 183 183 183
12.047075271606 16.311943054199 2.564999580383 179 179 179
12.047075271606 16.311943054199 2.650000572205 177 177 177
12.047075271606 16.311943054199 2.734999656677 171 171 171
12.047075271606 16.311943054199 2.818999290466 232 232 232
12.047075271606 16.311943054199 2.904999732971 210 210 210
12.062700271606 16.311841964722 2.990000724792 190 190 190
12.109574317932 16.311538696289 3.074999809265 141 141 141
12.109574317932 16.311538696289 3.158999443054 145 145 145
12.078324317932 16.311740875244 3.242999076843 151 151 151
11.968952178955 16.312450408936 3.328999519348 180 180 180
11.968952178955 16.312450408936 3.414999961853 185 185 185
11.968952178955 16.312450408936 3.501000404358 195 195 195
11.968952178955 16.312450408936 3.585999488831 183 183 183
11.984576225281 16.312349319458 3.671000480652 181 181 181
12.062700271606 16.311841964722 3.751000404358 168 168 168
12.078324317932 16.311740875244 3.835999488831 152 152 152
12.062700271606 16.311841964722 3.921000480652 163 163 163
12.047075271606 16.311943054199 4.008999824524 158 158 158
12.015826225281 16.312145233154 4.098000526428 162 162 162
12.015826225281 16.312145233154 4.185000419617 172 172 172
12.015826225281 16.312145233154 4.270998954773 157 157 157
12.000201225281 16.312246322632 4.359999656677 169 169 169
12.000201225281 16.312246322632 4.446999549866 180 180 180
12.000201225281 16.312246322632 4.535000801086 179 179 179
12.000201225281 16.312246322632 4.626000404358 182 182 182
12.000201225281 16.312246322632 4.711998939514 127 127 127
12.015826225281 16.312145233154 4.800000190735 126 126 126
12.095165252686 16.499134063721 1.357999801636 163 163 163
12.063916206360 16.499336242676 1.439000129700 153 153 153
12.048291206360 16.499437332153 1.522999763489 183 183 183
11.985792160034 16.499843597412 1.599999427795 255 255 255
11.938512802124 16.437648773193 1.677000045776 255 255 255
12.048291206360 16.499437332153 1.789999961853 94 94 94
12.048291206360 16.499437332153 1.875999450684 40 40 40
11.860389709473 16.438154220581 3.157000541687 14 14 14
11.829140663147 16.438356399536 3.244000434875 177 177 177
11.829140663147 16.438356399536 3.331000328064 174 174 174
11.829140663147 16.438356399536 3.418000221252 180 180 180
11.829140663147 16.438356399536 3.505000114441 180 180 180
11.876014709473 16.438053131104 3.591000556946 136 136 136
11.876014709473 16.438053131104 3.676999092102 181 181 181
11.829140663147 16.438356399536 3.766999244690 188 188 188
11.813515663147 16.438457489014 3.856999397278 48 48 48
11.985386848450 16.437345504761 4.272999763489 206 206 206
11.985386848450 16.437345504761 4.359999656677 229 229 229
11.985386848450 16.437345504761 4.449000358582 219 219 219
11.985386848450 16.437345504761 4.536000251770 221 221 221
11.969762802124 16.437446594238 4.626999855042 219 219 219
11.969762802124 16.437446594238 4.714999198914 198 198 198
11.798700332642 16.563558578491 3.418999671936 156 156 156
11.783076286316 16.563659667969 3.506999015808 188 188 188
11.814325332642 16.563455581665 3.593998908997 196 196 196
11.798700332642 16.563558578491 3.682000160217 195 195 195
11.798700332642 16.563558578491 3.769999504089 185 185 185
11.970572471619 16.562444686890 4.186999320984 154 154 154
11.970572471619 16.562444686890 4.275000572205 248 248 248
11.970572471619 16.562444686890 4.360999107361 236 236 236
11.954947471619 16.562545776367 4.452000617981 20 20 20
11.954947471619 16.562545776367 4.626999855042 223 223 223
11.954947471619 16.562545776367 4.717000007629 221 221 221
11.954947471619 16.562545776367 4.804999351501 193 193 193
11.956162452698 16.750041961670 4.102999687195 112 112 112
11.940537452698 16.750143051147 4.190999031067 255 255 255
11.956162452698 16.750041961670 4.276999473572 251 251 251
11.956162452698 16.750041961670 4.362999916077 121 121 121
11.955758094788 16.687541961670 4.716000556946 219 219 219
11.955758094788 16.687541961670 4.806000709534 215 215 215
11.940133094788 16.687643051147 4.897000312805 176 176 176
11.941348075867 16.875139236450 4.192000389099 224 224 224
11.941348075867 16.875139236450 4.279000282288 194 194 194
11.910099029541 16.875341415405 4.723999977112 19 19 19
11.941348075867 16.875139236450 4.807999610901 163 163 163
11.996961593628 15.812256813049 4.092999458313 127 127 127
11.980931282043 15.749859809875 4.193999290466 204 204 204
11.965307235718 15.749960899353 4.697999000549 112 112 112
11.965307235718 15.749960899353 4.800000190735 198 198 198
11.997771263123 15.937253952026 4.192000389099 141 141 141
11.982146263123 15.937355041504 4.292000770569 142 142 142
11.982146263123 15.937355041504 4.592999458313 108 108 108
11.950491905212 15.875059127808 4.696999549866 115 115 115
11.950491905212 15.875059127808 4.800999641418 83 83 83
11.904428482056 16.000360488892 3.505000114441 139 139 139
11.904428482056 16.000360488892 3.603999137878 178 178 178
11.888803482056 16.000461578369 3.703999519348 179 179 179
11.967332839966 16.062454223633 4.196000099182 46 46 46
11.967332839966 16.062454223633 4.294999122620 141 141 141
11.967332839966 16.062454223633 4.394999504089 141 141 141
11.982956886292 16.062353134155 4.492999076843 96 96 96
11.967332839966 16.062454223633 4.595000267029 123 123 123
11.951707839966 16.062555313110 4.696999549866 119 119 119
11.890018463135 16.187957763672 3.308999061584 121 121 121
11.921268463135 16.187755584717 3.408999443054 126 126 126
11.905643463135 16.187856674194 3.508000373840 190 190 190
11.952517509460 16.187553405762 3.605999946594 154 154 154
11.890018463135 16.187957763672 3.706999778748 185 185 185
11.873989105225 16.125560760498 3.807000160217 137 137 137
12.093949317932 16.311639785767 3.990000724792 44 44 44
12.078324317932 16.311740875244 4.088000297546 67 67 67
12.078324317932 16.311740875244 4.185999870300 43 43 43
11.999796867371 16.249746322632 4.293000221252 111 111 111
12.031045913696 16.249544143677 4.386000633240 167 167 167
11.999796867371 16.249746322632 4.490000724792 123 123 123
12.062700271606 16.311841964722 4.578999519348 159 159 159
12.062700271606 16.311841964722 4.678999900818 75 75 75
12.062700271606 16.311841964722 4.777998924255 86 86 86
12.047885894775 16.436939239502 1.333999633789 150 150 150
12.094759941101 16.436635971069 1.451999664307 125 125 125
12.094759941101 16.436635971069 1.553999900818 137 137 137
12.094759941101 16.436635971069 1.654999732971 115 115 115
12.079134941101 16.436737060547 1.750999450684 115 115 115
12.079134941101 16.436737060547 1.854000091553 112 112 112
12.079134941101 16.436737060547 1.952000617981 116 116 116
12.079134941101 16.436737060547 2.051999092102 116 116 116
12.063510894775 16.436838150024 2.150000572205 116 116 116
12.063510894775 16.436838150024 2.245999336243 96 96 96
12.047885894775 16.436939239502 2.342999458313 102 102 102
12.032260894775 16.437040328979 2.439999580383 108 108 108
12.016636848450 16.437141418457 2.535000801086 119 119 119
12.016636848450 16.437141418457 2.633999824524 112 112 112
12.016636848450 16.437141418457 2.730999946594 118 118 118
12.016636848450 16.437141418457 2.828999519348 116 116 116
12.000606536865 16.374744415283 2.925999641418 123 123 123
12.000606536865 16.374744415283 3.022999763489 118 118 118
12.000606536865 16.374744415283 3.120999336243 118 118 118
11.984981536865 16.374847412109 3.217999458313 121 121 121
11.984981536865 16.374847412109 3.315999031067 123 123 123
11.984981536865 16.374847412109 3.412999153137 129 129 129
11.984981536865 16.374847412109 3.511000633240 137 137 137
11.984981536865 16.374847412109 3.609000205994 132 132 132
11.969357490540 16.374948501587 3.706999778748 150 150 150
11.953732490540 16.375049591064 3.806000709534 150 150 150
11.969357490540 16.374948501587 3.902998924255 124 124 124
11.969357490540 16.374948501587 4.001999855042 109 109 109
11.969357490540 16.374948501587 4.099999427795 108 108 108
11.969357490540 16.374948501587 4.197999000549 97 97 97
11.969357490540 16.374948501587 4.296999931335 91 91 91
11.969357490540 16.374948501587 4.395998954773 127 127 127
11.953732490540 16.375049591064 4.497000694275 129 129 129
11.953732490540 16.375049591064 4.598000526428 139 139 139
11.953732490540 16.375049591064 4.697999000549 74 74 74
11.953732490540 16.375049591064 4.796999931335 71 71 71
11.986196517944 16.562343597412 1.323999404907 163 163 163
11.986196517944 16.562343597412 1.430000305176 104 104 104
11.813515663147 16.438457489014 3.214999198914 165 165 165
11.813515663147 16.438457489014 3.314999580383 162 162 162
11.813515663147 16.438457489014 3.414999961853 167 167 167
11.813515663147 16.438457489014 3.515000343323 137 137 137
11.813515663147 16.438457489014 3.615000724792 134 134 134
11.797485351563 16.376062393188 3.714999198914 197 197 197
11.797485351563 16.376062393188 3.814999580383 164 164 164
11.938918113708 16.500146865845 4.301999092102 134 134 134
11.938918113708 16.500146865845 4.400000572205 133 133 133
11.923294067383 16.500247955322 4.501999855042 132 132 132
11.923294067383 16.500247955322 4.602000236511 145 145 145
11.907669067383 16.500349044800 4.703000068665 138 138 138
11.783076286316 16.563659667969 3.317000389099 135 135 135
11.783076286316 16.563659667969 3.417000770569 165 165 165
11.783076286316 16.563659667969 3.516999244690 190 190 190
11.814325332642 16.563455581665 3.616999626160 134 134 134
11.767451286316 16.563760757446 3.717999458313 194 194 194
11.767046928406 16.501260757446 3.817999839783 172 172 172
11.924103736877 16.625246047974 4.203999519348 123 123 123
11.924103736877 16.625246047974 4.303000450134 140 140 140
11.924103736877 16.625246047974 4.401999473572 118 118 118
11.908478736877 16.625347137451 4.602999687195 144 144 144
11.908478736877 16.625347137451 4.703000068665 149 149 149
11.908478736877 16.625347137451 4.803000450134 122 122 122
11.737012863159 16.688959121704 3.518000602722 107 107 107
11.737012863159 16.688959121704 3.617999076843 176 176 176
11.737012863159 16.688959121704 3.718998908997 164 164 164
11.909693717957 16.812843322754 4.105999946594 55 55 55
11.909693717957 16.812843322754 4.204998970032 145 145 145
11.909693717957 16.812843322754 4.303999900818 136 136 136
11.909288406372 16.750345230103 4.702000617981 147 147 147
11.893663406372 16.750446319580 4.803000450134 142 142 142
11.909693717957 16.812843322754 4.902998924255 86 86 86
11.879255294800 16.938043594360 4.206000328064 94 94 94
11.863224983215 16.875644683838 4.806000709534 71 71 71
12.027400016785 15.687056541443 4.718998908997 66 66 66
12.043835639954 15.811952590942 4.915999412537 22 22 22
12.043835639954 15.811952590942 4.814000129700 203 203 203
12.043835639954 15.811952590942 4.713000297546 176 176 176
12.075084686279 15.811750411987 4.206000328064 208 208 208
12.075084686279 15.811750411987 4.106999397278 127 127 127
12.060270309448 15.936848640442 4.807000160217 151 151 151
12.044645309448 15.936949729919 4.709000587463 179 179 179
12.044645309448 15.936949729919 4.606999397278 140 140 140
12.060270309448 15.936848640442 4.303999900818 160 160 160
12.060270309448 15.936848640442 4.204998970032 153 153 153
12.075894355774 15.936747550964 4.103999137878 14 14 14
12.045455932617 16.061946868896 4.704998970032 162 162 162
12.045455932617 16.061946868896 4.605000495911 168 168 168
12.061080932617 16.061845779419 4.402998924255 136 136 136
12.061080932617 16.061845779419 4.303000450134 150 150 150
12.061080932617 16.061845779419 4.203000068665 81 81 81
11.967332839966 16.062454223633 3.811999320984 111 111 111
11.967332839966 16.062454223633 3.711998939514 128 128 128
11.982956886292 16.062353134155 3.612000465393 165 165 165
11.982956886292 16.062353134155 3.512000083923 119 119 119
11.982956886292 16.062353134155 3.412999153137 96 96 96
12.061890602112 16.186843872070 4.700999259949 71 71 71
12.046265602112 16.186944961548 4.602000236511 167 167 167
12.061890602112 16.186843872070 4.501000404358 153 153 153
12.046265602112 16.186944961548 4.402998924255 145 145 145
12.046265602112 16.186944961548 4.303000450134 126 126 126
11.937297821045 16.250152587891 3.813000679016 120 120 120
11.952922821045 16.250051498413 3.713000297546 146 146 146
11.999391555786 16.187248229980 3.610999107361 130 130 130
11.968547821045 16.249950408936 3.512999534607 154 154 154
11.968547821045 16.249950408936 3.412999153137 132 132 132
11.968547821045 16.249950408936 3.314000129700 101 101 101
11.952922821045 16.250051498413 3.213999748230 100 100 100
12.093544960022 16.249139785767 4.894000053406 40 40 40
12.078324317932 16.311740875244 4.797999382019 125 125 125
12.078324317932 16.311740875244 4.696999549866 133 133 133
12.093949317932 16.311639785767 4.595999717712 136 136 136
12.078324317932 16.311740875244 4.498000144958 129 129 129
12.078324317932 16.311740875244 4.398999214172 137 137 137
12.078324317932 16.311740875244 4.300000190735 144 144 144
12.078324317932 16.311740875244 4.200999259949 141 141 141
12.078324317932 16.311740875244 4.102999687195 143 143 143
12.078324317932 16.311740875244 4.004000663757 151 151 151
12.062700271606 16.311841964722 3.905999183655 154 154 154
12.078324317932 16.311740875244 3.807999610901 157 157 157
12.062700271606 16.311841964722 3.710000038147 164 164 164
12.062700271606 16.311841964722 3.610999107361 162 162 162
12.062700271606 16.311841964722 3.512999534607 158 158 158
12.047075271606 16.311943054199 3.414999961853 143 143 143
12.047075271606 16.311943054199 3.317000389099 142 142 142
12.047075271606 16.311943054199 3.218998908997 136 136 136
12.093949317932 16.311639785767 3.122000694275 102 102 102
12.093949317932 16.311639785767 3.023999214172 97 97 97
12.062700271606 16.311841964722 2.924000740051 87 87 87
12.078324317932 16.311740875244 2.827000617981 76 76 76
12.078324317932 16.311740875244 2.728999137878 55 55 55
12.062700271606 16.311841964722 2.627999305725 19 19 19
12.032260894775 16.437040328979 4.707999229431 108 108 108
12.001011848450 16.437242507935 4.609999656677 154 154 154
12.032260894775 16.437040328979 4.506999015808 146 146 146
12.016636848450 16.437141418457 4.407999992371 150 150 150
12.016636848450 16.437141418457 4.308999061584 95 95 95
11.845574378967 16.563253402710 3.821999549866 129 129 129
11.907669067383 16.500349044800 3.718998908997 132 132 132
12.032260894775 16.437040328979 3.616000175476 124 124 124
12.001417160034 16.499740600586 3.518000602722 137 137 137
11.938918113708 16.500146865845 3.418999671936 134 134 134
12.047885894775 16.436939239502 3.321000099182 130 130 130
12.172477722168 16.373630523682 3.226000785828 71 71 71
12.172477722168 16.373630523682 3.129000663757 63 63 63
12.172883033752 16.436128616333 3.032999992371 57 57 57
12.172883033752 16.436128616333 2.935000419617 64 64 64
12.157258987427 16.436231613159 2.836998939514 71 71 71
12.157258987427 16.436231613159 2.740000724792 79 79 79
12.172883033752 16.436128616333 2.644999504089 95 95 95
12.172883033752 16.436128616333 2.546999931335 107 107 107
12.172883033752 16.436128616333 2.449000358582 111 111 111
12.172883033752 16.436128616333 2.351000785828 126 126 126
12.188508033752 16.436027526855 2.254000663757 116 116 116
12.172883033752 16.436128616333 2.154000282288 111 111 111
12.157258987427 16.436231613159 2.053000450134 111 111 111
12.157258987427 16.436231613159 1.953000068665 121 121 121
12.157258987427 16.436231613159 1.852999687195 114 114 114
12.141633987427 16.436332702637 1.545000076294 141 141 141
12.157258987427 16.436231613159 1.446000099182 134 134 134
12.172883033752 16.436128616333 1.347000122070 122 122 122
12.001821517944 16.562240600586 4.811999320984 61 61 61
12.001821517944 16.562240600586 4.711998939514 156 156 156
12.001821517944 16.562240600586 4.610999107361 147 147 147
12.017446517944 16.562139511108 4.408999443054 146 146 146
12.001821517944 16.562240600586 4.310999870300 154 154 154
11.830760955811 16.688350677490 3.723999977112 105 105 105
11.830760955811 16.688350677490 3.623999595642 107 107 107
11.846385002136 16.688249588013 3.522999763489 11 11 11
11.987411499023 16.749839782715 4.814999580383 145 145 145
11.987411499023 16.749839782715 4.714999198914 142 142 142
12.003036499023 16.749736785889 4.411999702454 42 42 42
12.003036499023 16.749736785889 4.313000679016 154 154 154
12.003036499023 16.749736785889 4.213999748230 156 156 156
11.988222122192 16.874835968018 4.914999961853 42 42 42
11.988222122192 16.874835968018 4.814999580383 136 136 136
11.972598075867 16.874937057495 4.717000007629 16 16 16
12.003847122192 16.874732971191 4.314000129700 114 114 114
11.972598075867 16.874937057495 4.217000007629 159 159 159
12.003847122192 16.874732971191 4.115000724792 96 96 96
11.941348075867 16.875139236450 4.255999565125 25 25 25
11.940133094788 16.687643051147 4.960000038147 120 120 120
11.940133094788 16.687643051147 4.858000755310 125 125 125
11.940133094788 16.687643051147 4.756999015808 114 114 114
11.940133094788 16.687643051147 4.356999397278 141 141 141
11.940133094788 16.687643051147 4.258000373840 146 146 146
11.940537452698 16.750143051147 4.158999443054 77 77 77
11.939322471619 16.562646865845 4.859000205994 121 121 121
11.970572471619 16.562444686890 4.755000114441 133 133 133
11.939322471619 16.562646865845 4.657999992371 98 98 98
11.970572471619 16.562444686890 4.453000068665 124 124 124
11.954947471619 16.562545776367 4.355999946594 133 133 133
11.970572471619 16.562444686890 4.255999565125 137 137 137
11.969762802124 16.437446594238 4.756999015808 125 125 125
11.969762802124 16.437446594238 4.657999992371 129 129 129
11.985386848450 16.437345504761 4.553000450134 92 92 92
11.969762802124 16.437446594238 4.454998970032 130 130 130
11.985386848450 16.437345504761 4.355000495911 133 133 133
11.782671928406 16.501159667969 3.873000144958 70 70 70
11.782671928406 16.501159667969 3.772000312805 116 116 116
11.813920974731 16.500955581665 3.669999122620 141 141 141
11.813920974731 16.500955581665 3.570000648499 154 154 154
11.798295974731 16.501058578491 3.470000267029 83 83 83
12.125603675842 16.373935699463 2.009999275208 7 7 7
12.125603675842 16.373935699463 1.907999992371 56 56 56
11.985386848450 16.437345504761 1.576000213623 255 255 255
12.094354629517 16.374137878418 1.500000000000 139 139 139
12.063510894775 16.436838150024 1.388999938965 134 134 134
12.093544960022 16.249139785767 4.836998939514 30 30 30
12.077919960022 16.249240875244 4.740000724792 39 39 39
12.077919960022 16.249240875244 4.641999244690 136 136 136
12.031450271606 16.312044143677 4.550000190735 116 116 116
12.077919960022 16.249240875244 4.442999839783 140 140 140
12.077919960022 16.249240875244 4.345000267029 85 85 85
12.109169960022 16.249038696289 4.244000434875 82 82 82
12.093544960022 16.249139785767 4.147000312805 84 84 84
12.093544960022 16.249139785767 4.050000190735 84 84 84
12.093544960022 16.249139785767 3.952000617981 106 106 106
12.093544960022 16.249139785767 3.855000495911 102 102 102
12.093544960022 16.249139785767 3.758000373840 92 92 92
12.093544960022 16.249139785767 3.661000251770 91 91 91
12.093544960022 16.249139785767 3.564000129700 99 99 99
12.077919960022 16.249240875244 3.467000007629 100 100 100
12.093544960022 16.249139785767 3.369999885559 124 124 124
12.077919960022 16.249240875244 3.272999763489 117 117 117
12.077919960022 16.249240875244 3.175999641418 92 92 92
12.062295913696 16.249341964722 3.078000068665 109 109 109
12.062295913696 16.249341964722 2.980000495911 126 126 126
12.047075271606 16.311943054199 2.881999015808 122 122 122
12.047075271606 16.311943054199 2.782999992371 124 124 124
12.047075271606 16.311943054199 2.685999870300 119 119 119
12.031450271606 16.312044143677 2.585000038147 128 128 128
12.047075271606 16.311943054199 2.487000465393 128 128 128
12.031450271606 16.312044143677 2.387000083923 127 127 127
12.031450271606 16.312044143677 2.287999153137 141 141 141
12.031450271606 16.312044143677 2.189000129700 122 122 122
12.031450271606 16.312044143677 2.088000297546 109 109 109
12.031450271606 16.312044143677 1.988999366760 90 90 90
12.031450271606 16.312044143677 1.886000633240 74 74 74
12.000201225281 16.312246322632 1.777999877930 53 53 53
11.891233444214 16.375453948975 1.550999641418 255 255 255
11.922483444214 16.375251770020 1.345999717712 168 168 168
12.014611244202 16.124649047852 4.855999946594 74 74 74
11.999391555786 16.187248229980 4.758000373840 71 71 71
11.999391555786 16.187248229980 4.655999183655 134 134 134
11.999391555786 16.187248229980 4.557000160217 128 128 128
11.999391555786 16.187248229980 4.457999229431 149 149 149
11.999391555786 16.187248229980 4.356999397278 54 54 54
11.859174728394 16.250658035278 3.869999885559 112 112 112
11.874799728394 16.250556945801 3.769999504089 153 153 153
11.999391555786 16.187248229980 3.664999961853 120 120 120
11.983766555786 16.187351226807 3.567000389099 103 103 103
11.874799728394 16.250556945801 3.468998908997 122 122 122
11.874394416809 16.188058853149 3.369999885559 120 120 120
11.890018463135 16.187957763672 3.269999504089 114 114 114
12.013801574707 15.999651908875 4.758000373840 115 115 115
11.998176574707 15.999752998352 4.657999992371 147 147 147
12.013801574707 15.999651908875 4.556000709534 143 143 143
11.998176574707 15.999752998352 4.456999778748 126 126 126
11.998581886292 16.062252044678 4.358000755310 125 125 125
11.889208793640 16.062959671021 3.867999076843 115 115 115
11.904833793640 16.062858581543 3.766999244690 135 135 135
11.951707839966 16.062555313110 3.664999961853 96 96 96
11.904833793640 16.062858581543 3.567000389099 166 166 166
11.982956886292 16.062353134155 3.467000007629 104 104 104
11.920458793640 16.062757492065 3.367999076843 96 96 96
11.997365951538 15.874755859375 4.762000083923 140 140 140
12.012990951538 15.874654769897 4.658999443054 142 142 142
12.012990951538 15.874654769897 4.457999229431 42 42 42
12.012990951538 15.874654769897 4.356999397278 113 113 113
12.012990951538 15.874654769897 4.258000373840 115 115 115
11.935272216797 15.937659263611 3.765999794006 109 109 109
11.950897216797 15.937557220459 3.665999412537 118 118 118
11.935272216797 15.937659263611 3.565999031067 72 72 72
11.996556282043 15.749758720398 4.865000724792 170 170 170
12.012181282043 15.749657630920 4.761000633240 148 148 148
11.996556282043 15.749758720398 4.661999702454 49 49 49
12.027805328369 15.749555587769 4.355999946594 93 93 93
12.027805328369 15.749555587769 4.255999565125 128 128 128
12.027805328369 15.749555587769 4.155999183655 119 119 119
11.980121612549 15.624861717224 4.867999076843 103 103 103
11.995746612549 15.624760627747 4.763998985291 155 155 155
12.026995658875 15.624557495117 4.255999565125 88 88 88
11.940537452698 16.750143051147 4.227999687195 229 229 229
11.940537452698 16.750143051147 4.314999580383 226 226 226
11.924913406372 16.750244140625 4.843998908997 200 200 200
11.939727783203 16.625144958496 4.228999137878 251 251 251
11.955352783203 16.625043869019 4.314999580383 234 234 234
11.955352783203 16.625043869019 4.400000572205 204 204 204
11.908478736877 16.625347137451 4.671999931335 15 15 15
11.939727783203 16.625144958496 4.755000114441 210 210 210
11.939727783203 16.625144958496 4.842999458313 207 207 207
11.955352783203 16.625043869019 4.929999351501 148 148 148
11.782671928406 16.501159667969 3.461998939514 165 165 165
11.782671928406 16.501159667969 3.549000740051 181 181 181
11.813920974731 16.500955581665 3.634999275208 186 186 186
11.782266616821 16.438661575317 3.723999977112 175 175 175
11.782266616821 16.438661575317 3.811999320984 176 176 176
11.954543113708 16.500045776367 4.228999137878 14 14 14
11.970168113708 16.499944686890 4.313000679016 232 232 232
11.970168113708 16.499944686890 4.400000572205 227 227 227
11.970168113708 16.499944686890 4.487000465393 184 184 184
11.954543113708 16.500045776367 4.578000068665 15 15 15
11.954543113708 16.500045776367 4.665999412537 219 219 219
11.954543113708 16.500045776367 4.752999305725 211 211 211
11.970168113708 16.499944686890 4.841000556946 160 160 160
12.016231536865 16.374643325806 1.387000083923 168 168 168
12.078729629517 16.374238967896 1.491000175476 120 120 120
12.016231536865 16.374643325806 1.567999839783 165 165 165
11.969357490540 16.374948501587 1.647000312805 227 227 227
11.922483444214 16.375251770020 1.723999977112 255 255 255
12.031855583191 16.374542236328 1.835000038147 110 110 110
12.031855583191 16.374542236328 1.921000480652 102 102 102
12.031855583191 16.374542236328 2.008000373840 89 89 89
12.031855583191 16.374542236328 2.093998908997 61 61 61
11.843954086304 16.313259124756 3.199000358582 25 25 25
11.843954086304 16.313259124756 3.285000801086 170 170 170
11.828330039978 16.313360214233 3.372000694275 173 173 173
11.828330039978 16.313360214233 3.459000587463 173 173 173
11.828330039978 16.313360214233 3.546000480652 160 160 160
11.843954086304 16.313259124756 3.631999015808 141 141 141
11.859579086304 16.313158035278 3.717999458313 153 153 153
11.843954086304 16.313259124756 3.806000709534 182 182 182
11.828330039978 16.313360214233 3.894999504089 76 76 76
11.984576225281 16.312349319458 4.310999870300 103 103 103
11.984576225281 16.312349319458 4.397999763489 216 216 216
11.984576225281 16.312349319458 4.484999656677 209 209 209
11.984576225281 16.312349319458 4.574000358582 219 219 219
11.984576225281 16.312349319458 4.661999702454 212 212 212
11.968952178955 16.312450408936 4.751000404358 157 157 157
12.062295913696 16.249341964722 1.919999122620 16 16 16
12.046670913696 16.249443054199 2.004000663757 45 45 45
12.031045913696 16.249544143677 2.089999198914 64 64 64
12.046670913696 16.249443054199 2.176999092102 87 87 87
12.031045913696 16.249544143677 2.262000083923 97 97 97
12.031045913696 16.249544143677 2.348000526428 99 99 99
12.046670913696 16.249443054199 2.435000419617 107 107 107
12.031045913696 16.249544143677 2.518000602722 121 121 121
12.031045913696 16.249544143677 2.603999137878 141 141 141
12.031045913696 16.249544143677 2.688000679016 151 151 151
12.031045913696 16.249544143677 2.772999763489 169 169 169
12.031045913696 16.249544143677 2.858000755310 179 179 179
12.031045913696 16.249544143677 2.942999839783 202 202 202
12.046670913696 16.249443054199 3.027998924255 197 197 197
12.046670913696 16.249443054199 3.112000465393 205 205 205
12.030640602112 16.187046051025 3.196999549866 188 188 188
12.030640602112 16.187046051025 3.280999183655 201 201 201
11.999391555786 16.187248229980 3.366000175476 179 179 179
12.015016555786 16.187147140503 3.450999259949 172 172 172
11.999391555786 16.187248229980 3.536000251770 179 179 179
11.999391555786 16.187248229980 3.622000694275 166 166 166
11.999391555786 16.187248229980 3.706000328064 153 153 153
12.077514648438 16.186742782593 3.785000801086 122 122 122
12.093139648438 16.186641693115 3.869999885559 111 111 111
12.093139648438 16.186641693115 3.953999519348 100 100 100
12.077514648438 16.186742782593 4.039999961853 90 90 90
12.077514648438 16.186742782593 4.124999046326 88 88 88
12.046265602112 16.186944961548 4.214999198914 83 83 83
12.046265602112 16.186944961548 4.300999641418 97 97 97
12.015016555786 16.187147140503 4.391999244690 121 121 121
12.077514648438 16.186742782593 4.470000267029 210 210 210
12.015016555786 16.187147140503 4.568999290466 196 196 196
12.093139648438 16.186641693115 4.638998985291 193 193 193
12.077514648438 16.186742782593 4.731999397278 92 92 92
12.046265602112 16.186944961548 4.824999809265 110 110 110
12.093139648438 16.186641693115 4.904999732971 66 66 66
11.920458793640 16.062757492065 3.280999183655 96 96 96
11.920458793640 16.062757492065 3.366999626160 132 132 132
11.951707839966 16.062555313110 3.452000617981 170 170 170
11.920458793640 16.062757492065 3.539000511169 186 186 186
11.951707839966 16.062555313110 3.623999595642 168 168 168
11.936082839966 16.062656402588 3.710000038147 179 179 179
11.889208793640 16.062959671021 3.800999641418 174 174 174
11.998581886292 16.062252044678 4.310000419617 119 119 119
11.998581886292 16.062252044678 4.395998954773 231 231 231
11.998581886292 16.062252044678 4.484000205994 223 223 223
12.014206886292 16.062150955200 4.571000099182 203 203 203
11.998581886292 16.062252044678 4.661000251770 187 187 187
11.935272216797 15.937659263611 3.537999153137 144 144 144
11.935272216797 15.937659263611 3.623999595642 167 167 167
11.935272216797 15.937659263611 3.710999488831 179 179 179
11.919242858887 15.875262260437 3.797999382019 174 174 174
12.013396263123 15.937152862549 4.221999168396 101 101 101
12.013396263123 15.937152862549 4.308999061584 234 234 234
12.013396263123 15.937152862549 4.397000312805 228 228 228
12.013396263123 15.937152862549 4.484000205994 158 158 158
12.012990951538 15.874654769897 4.571999549866 175 175 175
11.997365951538 15.874755859375 4.661999702454 187 187 187
11.997365951538 15.874755859375 4.751999855042 185 185 185
12.027805328369 15.749555587769 4.134999275208 159 159 159
12.012181282043 15.749657630920 4.223000526428 246 246 246
12.012181282043 15.749657630920 4.310999870300 231 231 231
12.027805328369 15.749555587769 4.397000312805 110 110 110
12.012181282043 15.749657630920 4.664000511169 182 182 182
11.996556282043 15.749758720398 4.755000114441 181 181 181
11.996556282043 15.749758720398 4.843998908997 180 180 180
12.026995658875 15.624557495117 4.137999534607 210 210 210
12.042620658875 15.624456405640 4.223999977112 218 218 218
12.042620658875 15.624456405640 4.310000419617 93 93 93
12.011371612549 15.624659538269 4.758999824524 179 179 179
11.995746612549 15.624760627747 4.851000785828 189 189 189
11.940537452698 16.750143051147 4.168000221252 103 103 103
11.956162452698 16.750041961670 4.265000343323 110 110 110
11.940537452698 16.750143051147 4.365000724792 56 56 56
11.924913406372 16.750244140625 4.765000343323 122 122 122
11.924913406372 16.750244140625 4.865000724792 130 130 130
11.924913406372 16.750244140625 4.967999458313 52 52 52
11.782671928406 16.501159667969 3.480999946594 137 137 137
11.813920974731 16.500955581665 3.581000328064 174 174 174
11.798295974731 16.501058578491 3.681000709534 200 200 200
11.782671928406 16.501159667969 3.780999183655 149 149 149
11.782671928406 16.501159667969 3.881999015808 60 60 60
11.955352783203 16.625043869019 4.265999794006 115 115 115
11.955352783203 16.625043869019 4.365000724792 117 117 117
11.939727783203 16.625144958496 4.664999961853 101 101 101
11.939727783203 16.625144958496 4.765000343323 139 139 139
11.939727783203 16.625144958496 4.866000175476 127 127 127
11.844359397888 16.375757217407 3.280999183655 141 141 141
11.828735351563 16.375858306885 3.380999565125 137 137 137
11.828735351563 16.375858306885 3.480999946594 151 151 151
11.828735351563 16.375858306885 3.581000328064 131 131 131
11.860389709473 16.438154220581 3.679999351501 104 104 104
11.828735351563 16.375858306885 3.779999732971 199 199 199
11.828735351563 16.375858306885 3.880999565125 127 127 127
11.970168113708 16.499944686890 4.265000343323 41 41 41
11.970168113708 16.499944686890 4.365000724792 117 117 117
11.970168113708 16.499944686890 4.463000297546 116 116 116
11.954543113708 16.500045776367 4.564999580383 69 69 69
11.954543113708 16.500045776367 4.664999961853 128 128 128
11.954137802124 16.437547683716 4.766999244690 129 129 129
12.079134941101 16.436737060547 1.314000129700 101 101 101
12.063510894775 16.436838150024 1.411000251770 89 89 89
12.047885894775 16.436939239502 1.507999420166 93 93 93
12.032260894775 16.437040328979 1.606999397278 111 111 111
12.032260894775 16.437040328979 1.706999778748 118 118 118
12.031855583191 16.374542236328 1.807999610901 114 114 114
12.031855583191 16.374542236328 1.907999992371 103 103 103
12.016231536865 16.374643325806 2.006999015808 109 109 109
12.031855583191 16.374542236328 2.108000755310 103 103 103
12.031855583191 16.374542236328 2.207999229431 82 82 82
12.016231536865 16.374643325806 2.304999351501 83 83 83
12.016231536865 16.374643325806 2.404000282288 89 89 89
12.016231536865 16.374643325806 2.501999855042 82 82 82
12.000606536865 16.374744415283 2.599999427795 73 73 73
12.016231536865 16.374643325806 2.699000358582 69 69 69
12.000606536865 16.374744415283 2.796000480652 60 60 60
12.000606536865 16.374744415283 2.894000053406 42 42 42
11.874799728394 16.250556945801 3.182000160217 67 67 67
11.859174728394 16.250658035278 3.280999183655 167 167 167
11.859174728394 16.250658035278 3.380999565125 159 159 159
11.890828132629 16.312955856323 3.480999946594 170 170 170
11.937702178955 16.312652587891 3.578999519348 119 119 119
11.969357490540 16.374948501587 3.676999092102 124 124 124
11.859174728394 16.250658035278 3.779999732971 179 179 179
11.859174728394 16.250658035278 3.880000114441 109 109 109
11.984981536865 16.374847412109 4.363999366760 106 106 106
11.968952178955 16.312450408936 4.464999198914 108 108 108
11.984981536865 16.374847412109 4.563000679016 114 114 114
11.968952178955 16.312450408936 4.664999961853 132 132 132
12.140823364258 16.311336517334 1.928999900818 28 28 28
12.140823364258 16.311336517334 2.026999473572 42 42 42
12.125198364258 16.311437606812 2.123999595642 46 46 46
12.125198364258 16.311437606812 2.221999168396 33 33 33
12.109574317932 16.311538696289 2.318999290466 37 37 37
12.109574317932 16.311538696289 2.414999961853 41 41 41
12.109574317932 16.311538696289 2.512000083923 55 55 55
12.125198364258 16.311437606812 2.612000465393 54 54 54
12.109574317932 16.311538696289 2.707999229431 64 64 64
12.109574317932 16.311538696289 2.803999900818 82 82 82
12.125198364258 16.311437606812 2.901999473572 90 90 90
12.109574317932 16.311538696289 2.998000144958 98 98 98
12.109574317932 16.311538696289 3.093998908997 90 90 90
12.093949317932 16.311639785767 3.189999580383 91 91 91
12.093949317932 16.311639785767 3.286000251770 99 99 99
12.109574317932 16.311538696289 3.383000373840 105 105 105
12.077919960022 16.249240875244 3.478999137878 97 97 97
12.077919960022 16.249240875244 3.575999259949 95 95 95
12.077919960022 16.249240875244 3.672999382019 86 86 86
12.077919960022 16.249240875244 3.769999504089 98 98 98
12.077919960022 16.249240875244 3.866999626160 100 100 100
12.077919960022 16.249240875244 3.963999748230 95 95 95
12.077919960022 16.249240875244 4.060999870300 90 90 90
12.062295913696 16.249341964722 4.160000801086 97 97 97
12.062295913696 16.249341964722 4.255999565125 92 92 92
12.062295913696 16.249341964722 4.355000495911 103 103 103
12.077919960022 16.249240875244 4.449999809265 117 117 117
12.046670913696 16.249443054199 4.553000450134 97 97 97
12.062295913696 16.249341964722 4.651000022888 103 103 103
12.046670913696 16.249443054199 4.752999305725 104 104 104
12.046670913696 16.249443054199 4.852000236511 109 109 109
11.967332839966 16.062454223633 3.477000236511 131 131 131
11.920053482056 16.000259399414 3.575999259949 135 135 135
11.951302528381 16.000057220459 3.674000740051 141 141 141
11.904428482056 16.000360488892 3.775000572205 152 152 152
11.998581886292 16.062252044678 4.362999916077 120 120 120
11.998581886292 16.062252044678 4.463000297546 121 121 121
12.014206886292 16.062150955200 4.560999870300 103 103 103
11.998581886292 16.062252044678 4.661000251770 89 89 89
11.966116905212 15.874958038330 3.671999931335 53 53 53
12.029020309448 15.937050819397 4.259999275208 118 118 118
12.013396263123 15.937152862549 4.360999107361 110 110 110
12.013396263123 15.937152862549 4.459000587463 34 34 34
11.997365951538 15.874755859375 4.661999702454 95 95 95
11.997365951538 15.874755859375 4.762999534607 91 91 91
11.839499473572 15.625773429871 1.307000160217 166 166 166
12.027805328369 15.749555587769 4.157999992371 120 120 120
12.027805328369 15.749555587769 4.258000373840 130 130 130
12.027805328369 15.749555587769 4.356999397278 97 97 97
12.012181282043 15.749657630920 4.658999443054 19 19 19
12.012181282043 15.749657630920 4.761000633240 86 86 86
11.996556282043 15.749758720398 4.863999366760 151 151 151
12.042620658875 15.624456405640 4.252999305725 102 102 102
12.011371612549 15.624659538269 4.758000373840 51 51 51
