8.277115821838 10.511692047119 50.036994934082 127 127 127
8.277115821838 10.511692047119 49.999000549316 136 136 136
8.277115821838 10.511692047119 49.961006164551 136 136 136
8.269924163818 10.497819900513 49.924003601074 157 157 157
8.277115821838 10.511692047119 49.883995056152 174 174 174
8.277115821838 10.511692047119 49.846000671387 126 126 126
8.291499137878 10.539434432983 49.806007385254 44 44 44
8.291499137878 10.539434432983 49.583000183105 95 95 95
8.277115821838 10.511692047119 49.547996520996 131 131 131
8.277115821838 10.511692047119 49.511009216309 129 129 129
8.270180702209 10.515287399292 49.474998474121 135 135 135
8.269924163818 10.497819900513 49.440010070801 141 141 141
8.277115821838 10.511692047119 49.401008605957 132 132 132
8.248861312866 10.491140365601 49.366996765137 108 108 108
8.248604774475 10.473672866821 49.332008361816 57 57 57
8.323058128357 11.262278556824 49.972007751465 112 112 112
8.308929443359 11.252002716064 49.944007873535 141 141 141
8.323058128357 11.262278556824 49.909004211426 137 137 137
8.323058128357 11.262278556824 49.874000549316 158 158 158
8.315610885620 11.230939865112 49.845008850098 159 159 159
8.308673858643 11.234535217285 49.810997009277 159 159 159
8.308929443359 11.252002716064 49.775001525879 134 134 134
8.315610885620 11.230939865112 49.743995666504 85 85 85
8.301483154297 11.220663070679 49.612007141113 121 121 121
8.301483154297 11.220663070679 49.577995300293 144 144 144
8.301483154297 11.220663070679 49.545005798340 174 174 174
8.301483154297 11.220663070679 49.511009216309 160 160 160
8.301483154297 11.220663070679 49.478996276855 151 151 151
8.301483154297 11.220663070679 49.444999694824 163 163 163
8.301483154297 11.220663070679 49.411994934082 134 134 134
8.308673858643 11.234535217285 49.375999450684 70 70 70
8.284564018250 10.543030738831 50.038002014160 133 133 133
8.277627944946 10.546627044678 49.993995666504 172 172 172
8.277627944946 10.546627044678 49.950004577637 180 180 180
8.298947334290 10.570774078369 49.907005310059 180 180 180
8.298947334290 10.570774078369 49.864006042480 185 185 185
8.298947334290 10.570774078369 49.821006774902 167 167 167
8.256565093994 10.539947509766 49.784004211426 16 16 16
8.298947334290 10.570774078369 49.609001159668 141 141 141
8.298947334290 10.570774078369 49.567008972168 171 171 171
8.277627944946 10.546627044678 49.525001525879 173 173 173
8.277627944946 10.546627044678 49.483009338379 169 169 169
8.277627944946 10.546627044678 49.441001892090 171 171 171
8.277627944946 10.546627044678 49.399009704590 156 156 156
8.381128311157 10.932969093323 50.073005676270 87 87 87
8.360064506531 10.926290512085 50.034996032715 122 122 122
8.381128311157 10.932969093323 49.991996765137 124 124 124
8.360064506531 10.926290512085 49.954002380371 128 128 128
8.360064506531 10.926290512085 49.914009094238 127 127 127
8.381128311157 10.932969093323 49.870002746582 130 130 130
8.381128311157 10.932969093323 49.831001281738 129 129 129
8.381128311157 10.932969093323 49.790000915527 131 131 131
8.381128311157 10.932969093323 49.750999450684 129 129 129
8.381128311157 10.932969093323 49.709999084473 131 131 131
8.381128311157 10.932969093323 49.670997619629 134 134 134
8.381128311157 10.932969093323 49.629997253418 133 133 133
8.381128311157 10.932969093323 49.590995788574 139 139 139
8.381128311157 10.932969093323 49.549995422363 132 132 132
8.360064506531 10.926290512085 49.512001037598 136 136 136
8.381128311157 10.932969093323 49.471000671387 140 140 140
8.381128311157 10.932969093323 49.431999206543 142 142 142
8.381128311157 10.932969093323 49.392005920410 140 140 140
8.381128311157 10.932969093323 49.351997375488 142 142 142
8.381128311157 10.932969093323 49.312995910645 138 138 138
8.381128311157 10.932969093323 49.273002624512 138 138 138
8.388319969177 10.946840286255 49.233009338379 144 144 144
8.388319969177 10.946840286255 49.193000793457 140 140 140
8.388319969177 10.946840286255 49.153999328613 138 138 138
8.388319969177 10.946840286255 49.114006042480 143 143 143
8.388319969177 10.946840286255 49.075004577637 137 137 137
8.388319969177 10.946840286255 49.036003112793 140 140 140
8.381383895874 10.950437545776 48.996009826660 143 143 143
8.388319969177 10.946840286255 48.957008361816 143 143 143
8.388319969177 10.946840286255 48.916999816895 139 139 139
8.388319969177 10.946840286255 48.877998352051 137 137 137
8.388319969177 10.946840286255 48.838005065918 139 139 139
8.381128311157 10.932969093323 48.799003601074 139 139 139
8.381128311157 10.932969093323 48.758995056152 141 141 141
8.388319969177 10.946840286255 48.720008850098 141 141 141
8.381383895874 10.950437545776 48.681007385254 147 147 147
8.388319969177 10.946840286255 48.642005920410 144 144 144
8.381383895874 10.950437545776 48.601997375488 148 148 148
8.388319969177 10.946840286255 48.562995910645 144 144 144
8.388319969177 10.946840286255 48.523002624512 147 147 147
8.388319969177 10.946840286255 48.484001159668 153 153 153
8.388319969177 10.946840286255 48.444007873535 148 148 148
8.388319969177 10.946840286255 48.403999328613 147 147 147
8.388319969177 10.946840286255 48.364997863770 142 142 142
8.381383895874 10.950437545776 48.323997497559 138 138 138
8.388319969177 10.946840286255 48.284996032715 137 137 137
8.381383895874 10.950437545776 48.245002746582 131 131 131
8.381383895874 10.950437545776 48.204002380371 134 134 134
8.381383895874 10.950437545776 48.165000915527 134 134 134
8.381383895874 10.950437545776 48.124000549316 132 132 132
8.360064506531 10.926290512085 48.084007263184 129 129 129
8.381383895874 10.950437545776 48.043998718262 135 135 135
8.381383895874 10.950437545776 48.004997253418 131 131 131
8.381383895874 10.950437545776 47.963996887207 135 135 135
8.381383895874 10.950437545776 47.924003601074 128 128 128
8.388319969177 10.946840286255 47.885002136230 129 129 129
8.381383895874 10.950437545776 47.843009948730 133 133 133
8.388319969177 10.946840286255 47.804008483887 131 131 131
8.381383895874 10.950437545776 47.763008117676 126 126 126
8.381383895874 10.950437545776 47.722007751465 127 127 127
8.381383895874 10.950437545776 47.681007385254 132 132 132
8.381383895874 10.950437545776 47.640998840332 126 126 126
8.381383895874 10.950437545776 47.599998474121 128 128 128
8.381383895874 10.950437545776 47.558006286621 124 124 124
8.381383895874 10.950437545776 47.519004821777 127 127 127
8.353129386902 10.929885864258 47.474006652832 127 127 127
8.388319969177 10.946840286255 47.437995910645 118 118 118
8.381383895874 10.950437545776 47.394004821777 128 128 128
8.353129386902 10.929885864258 47.056007385254 137 137 137
8.353129386902 10.929885864258 47.013999938965 141 141 141
8.381383895874 10.950437545776 46.976005554199 137 137 137
8.329481124878 11.223747253418 49.970008850098 145 145 145
8.329481124878 11.223747253418 49.930000305176 171 171 171
8.329481124878 11.223747253418 49.892005920410 176 176 176
8.329481124878 11.223747253418 49.853004455566 171 171 171
8.329481124878 11.223747253418 49.815010070801 194 194 194
8.329481124878 11.223747253418 49.777000427246 184 184 184
8.322546005249 11.227343559265 49.739997863770 125 125 125
8.294290542603 11.206792831421 49.625999450684 161 161 161
8.322546005249 11.227343559265 49.586006164551 175 175 175
8.322546005249 11.227343559265 49.547996520996 209 209 209
8.322546005249 11.227343559265 49.510002136230 178 178 178
8.294290542603 11.206792831421 49.472999572754 190 190 190
8.322546005249 11.227343559265 49.433006286621 181 181 181
8.322546005249 11.227343559265 49.394996643066 128 128 128
8.327153205872 11.541756629944 49.971000671387 57 57 57
8.327153205872 11.541756629944 49.933006286621 148 148 148
8.320217132568 11.545352935791 49.424003601074 140 140 140
8.285026550293 11.528396606445 49.390007019043 21 21 21
8.443805694580 10.918073654175 49.161994934082 17 17 17
8.436869621277 10.921669960022 49.200004577637 34 34 34
8.458189010620 10.945817947388 49.239006042480 53 53 53
8.443805694580 10.918073654175 49.278999328613 58 58 58
8.436869621277 10.921669960022 49.317008972168 65 65 65
8.443805694580 10.918073654175 49.355995178223 66 66 66
8.436869621277 10.921669960022 49.394996643066 80 80 80
8.436869621277 10.921669960022 49.433006286621 89 89 89
8.443805694580 10.918073654175 49.472999572754 101 101 101
8.436869621277 10.921669960022 49.511009216309 97 97 97
8.436869621277 10.921669960022 49.549995422363 97 97 97
8.436869621277 10.921669960022 49.588996887207 152 152 152
8.436869621277 10.921669960022 49.627998352051 196 196 196
8.436869621277 10.921669960022 49.668006896973 115 115 115
8.436869621277 10.921669960022 49.706001281738 120 120 120
8.443805694580 10.918073654175 49.747001647949 115 115 115
8.436869621277 10.921669960022 49.784996032715 173 173 173
8.436869621277 10.921669960022 49.823005676270 166 166 166
8.436869621277 10.921669960022 49.862998962402 115 115 115
8.443805694580 10.918073654175 49.903999328613 119 119 119
8.436869621277 10.921669960022 49.943000793457 130 130 130
8.436869621277 10.921669960022 49.980995178223 126 126 126
8.436869621277 10.921669960022 50.021003723145 131 131 131
8.443805694580 10.918073654175 50.062995910645 118 118 118
8.339769363403 10.972011566162 50.086006164551 73 73 73
8.339769363403 10.972011566162 50.047996520996 89 89 89
8.332833290100 10.975607872009 50.015998840332 89 89 89
8.332577705383 10.958140373230 49.980995178223 104 104 104
8.332833290100 10.975607872009 49.944007873535 95 95 95
8.339769363403 10.972011566162 49.907997131348 96 96 96
8.339769363403 10.972011566162 49.872001647949 119 119 119
8.339769363403 10.972011566162 49.836997985840 137 137 137
8.339769363403 10.972011566162 49.803001403809 128 128 128
8.339769363403 10.972011566162 49.769004821777 133 133 133
8.339769363403 10.972011566162 49.733009338379 130 130 130
8.332577705383 10.958140373230 49.700996398926 132 132 132
8.346705436707 10.968416213989 49.664009094238 135 135 135
8.339513778687 10.954544067383 49.631996154785 130 130 130
8.332577705383 10.958140373230 49.596000671387 124 124 124
8.346705436707 10.968416213989 49.560005187988 105 105 105
8.332577705383 10.958140373230 49.527000427246 99 99 99
8.346705436707 10.968416213989 49.491004943848 104 104 104
8.346705436707 10.968416213989 49.456001281738 101 101 101
8.332577705383 10.958140373230 49.422996520996 113 113 113
8.339513778687 10.954544067383 49.388999938965 117 117 117
8.339513778687 10.954544067383 49.355003356934 119 119 119
8.332322120667 10.940673828125 49.321006774902 133 133 133
8.339513778687 10.954544067383 49.286003112793 141 141 141
8.332322120667 10.940673828125 49.252998352051 141 141 141
8.332322120667 10.940673828125 49.218009948730 149 149 149
8.332322120667 10.940673828125 49.183998107910 155 155 155
8.332322120667 10.940673828125 49.150001525879 162 162 162
8.339513778687 10.954544067383 49.114997863770 159 159 159
8.339513778687 10.954544067383 49.081001281738 156 156 156
8.332322120667 10.940673828125 49.047004699707 167 167 167
8.339513778687 10.954544067383 49.013008117676 163 163 163
8.332322120667 10.940673828125 48.978996276855 161 161 161
8.332322120667 10.940673828125 48.944999694824 157 157 157
8.332322120667 10.940673828125 48.911003112793 157 157 157
8.332322120667 10.940673828125 48.877006530762 151 151 151
8.332322120667 10.940673828125 48.843009948730 154 154 154
8.353640556335 10.964820861816 48.808998107910 149 149 149
8.332322120667 10.940673828125 48.775001525879 149 149 149
8.339257240295 10.937077522278 48.741004943848 147 147 147
8.339257240295 10.937077522278 48.707008361816 149 149 149
8.332322120667 10.940673828125 48.672996520996 150 150 150
8.332322120667 10.940673828125 48.638999938965 151 151 151
8.339257240295 10.937077522278 48.605003356934 152 152 152
8.339257240295 10.937077522278 48.569999694824 155 155 155
8.339257240295 10.937077522278 48.536994934082 151 151 151
8.332322120667 10.940673828125 48.502998352051 151 151 151
8.339257240295 10.937077522278 48.468009948730 153 153 153
8.339257240295 10.937077522278 48.433998107910 155 155 155
8.339257240295 10.937077522278 48.400001525879 151 151 151
8.332322120667 10.940673828125 48.366004943848 151 151 151
8.346448898315 10.950948715210 48.333000183105 152 152 152
8.332065582275 10.923206329346 48.297004699707 151 151 151
8.346193313599 10.933481216431 48.263008117676 156 156 156
8.339257240295 10.937077522278 48.228996276855 154 154 154
8.339257240295 10.937077522278 48.194999694824 156 156 156
8.339257240295 10.937077522278 48.159996032715 165 165 165
8.339257240295 10.937077522278 48.125999450684 162 162 162
8.339257240295 10.937077522278 48.092002868652 163 163 163
8.339257240295 10.937077522278 48.058006286621 162 162 162
8.339257240295 10.937077522278 48.023002624512 166 166 166
8.339257240295 10.937077522278 47.989006042480 160 160 160
8.346193313599 10.933481216431 47.952995300293 163 163 163
8.346193313599 10.933481216431 47.920005798340 152 152 152
8.339257240295 10.937077522278 47.885002136230 160 160 160
8.339257240295 10.937077522278 47.849998474121 159 159 159
8.339257240295 10.937077522278 47.815010070801 160 160 160
8.346193313599 10.933481216431 47.780998229980 155 155 155
8.346193313599 10.933481216431 47.745002746582 154 154 154
8.346193313599 10.933481216431 47.709007263184 155 155 155
8.346193313599 10.933481216431 47.676002502441 157 157 157
8.346193313599 10.933481216431 47.640998840332 153 153 153
8.346193313599 10.933481216431 47.605995178223 154 154 154
8.346193313599 10.933481216431 47.571006774902 157 157 157
8.346193313599 10.933481216431 47.534996032715 155 155 155
8.346193313599 10.933481216431 47.500007629395 154 154 154
8.346193313599 10.933481216431 47.463005065918 156 156 156
8.346193313599 10.933481216431 47.430000305176 151 151 151
8.346193313599 10.933481216431 47.390998840332 150 150 150
8.353129386902 10.929885864258 47.355995178223 146 146 146
8.353129386902 10.929885864258 47.319999694824 146 146 146
8.353129386902 10.929885864258 47.284004211426 145 145 145
8.346193313599 10.933481216431 47.250007629395 140 140 140
8.353129386902 10.929885864258 47.103004455566 139 139 139
8.346193313599 10.933481216431 47.068000793457 142 142 142
8.346193313599 10.933481216431 47.030998229980 142 142 142
8.346193313599 10.933481216431 46.995002746582 143 143 143
8.367512702942 10.957628250122 46.959999084473 146 146 146
8.361832618713 11.523777008057 50.006996154785 144 144 144
8.354896545410 11.527373313904 49.968009948730 165 165 165
8.361832618713 11.523777008057 49.933006286621 114 114 114
8.340513229370 11.499629974365 49.461006164551 168 168 168
8.326641082764 11.506821632385 49.424995422363 192 192 192
8.326385498047 11.489355087280 49.390007019043 162 162 162
8.336160659790 11.202684402466 50.011009216309 68 68 68
8.350288391113 11.212959289551 49.970008850098 169 169 169
8.350288391113 11.212959289551 49.931999206543 173 173 173
8.350288391113 11.212959289551 49.894004821777 172 172 172
8.350288391113 11.212959289551 49.855995178223 191 191 191
8.336160659790 11.202684402466 49.818000793457 183 183 183
8.336160659790 11.202684402466 49.780006408691 162 162 162
8.307906150818 11.182132720947 49.745002746582 30 30 30
8.328969001770 11.188812255859 49.668006896973 104 104 104
8.328969001770 11.188812255859 49.627998352051 172 172 172
8.328969001770 11.188812255859 49.590995788574 184 184 184
8.335905075073 11.185216903687 49.551002502441 186 186 186
8.328969001770 11.188812255859 49.513008117676 190 190 190
8.328969001770 11.188812255859 49.474998474121 189 189 189
8.328969001770 11.188812255859 49.437995910645 162 162 162
8.367000579834 10.922694206238 50.086997985840 136 136 136
8.380871772766 10.915502548218 50.043006896973 145 145 145
8.367000579834 10.922694206238 50.006004333496 134 134 134
8.367000579834 10.922694206238 49.965995788574 152 152 152
8.367000579834 10.922694206238 49.924995422363 145 145 145
8.380871772766 10.915502548218 49.883003234863 141 141 141
8.367000579834 10.922694206238 49.844001770020 138 138 138
8.380871772766 10.915502548218 49.804008483887 142 142 142
8.367000579834 10.922694206238 49.763999938965 139 139 139
8.367000579834 10.922694206238 49.724006652832 139 139 139
8.380871772766 10.915502548218 49.683006286621 136 136 136
8.380871772766 10.915502548218 49.642997741699 136 136 136
8.380871772766 10.915502548218 49.603004455566 133 133 133
8.380871772766 10.915502548218 49.564002990723 139 139 139
8.394999504089 10.925777435303 49.523002624512 133 133 133
8.394999504089 10.925777435303 49.484001159668 140 140 140
8.380871772766 10.915502548218 49.444999694824 138 138 138
8.394999504089 10.925777435303 49.405006408691 139 139 139
8.394999504089 10.925777435303 49.364997863770 140 140 140
8.394999504089 10.925777435303 49.325004577637 142 142 142
8.394999504089 10.925777435303 49.286003112793 139 139 139
8.387807846069 10.911906242371 49.247001647949 139 139 139
8.416062355042 10.932456970215 49.207008361816 138 138 138
8.394999504089 10.925777435303 49.168006896973 139 139 139
8.394999504089 10.925777435303 49.129005432129 142 142 142
8.416062355042 10.932456970215 49.088996887207 140 140 140
8.416062355042 10.932456970215 49.049995422363 138 138 138
8.416062355042 10.932456970215 49.011009216309 146 146 146
8.394999504089 10.925777435303 48.972007751465 138 138 138
8.394999504089 10.925777435303 48.931999206543 140 140 140
8.416062355042 10.932456970215 48.892997741699 140 140 140
8.416062355042 10.932456970215 48.853996276855 138 138 138
8.416062355042 10.932456970215 48.815010070801 145 145 145
8.416062355042 10.932456970215 48.775001525879 146 146 146
8.416062355042 10.932456970215 48.736000061035 148 148 148
8.416062355042 10.932456970215 48.696998596191 142 142 142
8.416062355042 10.932456970215 48.657997131348 142 142 142
8.422998428345 10.928861618042 48.618003845215 142 142 142
8.394743919373 10.908309936523 48.577995300293 137 137 137
8.422998428345 10.928861618042 48.539009094238 133 133 133
8.394743919373 10.908309936523 48.499000549316 136 136 136
8.394743919373 10.908309936523 48.459999084473 134 134 134
8.422998428345 10.928861618042 48.420997619629 130 130 130
8.394743919373 10.908309936523 48.381004333496 134 134 134
8.422998428345 10.928861618042 48.343009948730 131 131 131
8.394743919373 10.908309936523 48.302009582520 133 133 133
8.394743919373 10.908309936523 48.261009216309 126 126 126
8.415806770325 10.914989471436 48.222007751465 131 131 131
8.394743919373 10.908309936523 48.181999206543 135 135 135
8.415806770325 10.914989471436 48.142997741699 128 128 128
8.415806770325 10.914989471436 48.103004455566 129 129 129
8.415806770325 10.914989471436 48.062995910645 127 127 127
8.394743919373 10.908309936523 48.021995544434 135 135 135
8.394743919373 10.908309936523 47.983009338379 138 138 138
8.394743919373 10.908309936523 47.942008972168 131 131 131
8.415806770325 10.914989471436 47.903007507324 136 136 136
8.415806770325 10.914989471436 47.862998962402 134 134 134
8.415806770325 10.914989471436 47.821998596191 144 144 144
8.394743919373 10.908309936523 47.780998229980 130 130 130
8.394743919373 10.908309936523 47.739997863770 131 131 131
8.394743919373 10.908309936523 47.698997497559 127 127 127
8.394743919373 10.908309936523 47.659004211426 111 111 111
8.401679039001 10.904714584351 47.616996765137 112 112 112
8.394743919373 10.908309936523 47.577003479004 105 105 105
8.401679039001 10.904714584351 47.536003112793 105 105 105
8.415551185608 10.897522926331 47.496009826660 97 97 97
8.387552261353 10.894438743591 47.450004577637 86 86 86
8.401679039001 10.904714584351 47.409004211426 86 86 86
8.305882453918 10.567177772522 50.045005798340 125 125 125
8.334137916565 10.587728500366 50.000007629395 172 172 172
8.305882453918 10.567177772522 49.959007263184 177 177 177
8.305882453918 10.567177772522 49.916999816895 171 171 171
8.305882453918 10.567177772522 49.874000549316 177 177 177
8.305882453918 10.567177772522 49.831001281738 167 167 167
8.305882453918 10.567177772522 49.790000915527 41 41 41
8.334137916565 10.587728500366 49.661994934082 110 110 110
8.334137916565 10.587728500366 49.620002746582 165 165 165
8.305882453918 10.567177772522 49.579002380371 173 173 173
8.305882453918 10.567177772522 49.536994934082 165 165 165
8.305882453918 10.567177772522 49.495002746582 174 174 174
8.305882453918 10.567177772522 49.452995300293 165 165 165
8.305882453918 10.567177772522 49.411994934082 77 77 77
8.308723449707 10.284103393555 50.015998840332 101 101 101
8.287403106689 10.259956359863 49.974006652832 60 60 60
8.287403106689 10.259956359863 49.489997863770 103 103 103
8.294339179993 10.256361007690 49.446006774902 14 14 14
8.331809997559 10.905738830566 46.948997497559 149 149 149
8.346193313599 10.933481216431 46.995002746582 150 150 150
8.331041336060 10.853336334229 47.015007019043 104 104 104
8.353129386902 10.929885864258 47.159996032715 154 154 154
8.353129386902 10.929885864258 47.200996398926 152 152 152
8.353129386902 10.929885864258 47.243003845215 149 149 149
8.353129386902 10.929885864258 47.284004211426 157 157 157
8.346193313599 10.933481216431 47.327003479004 161 161 161
8.331809997559 10.905738830566 47.364997863770 162 162 162
8.331809997559 10.905738830566 47.407005310059 163 163 163
8.331809997559 10.905738830566 47.446006774902 160 160 160
8.331809997559 10.905738830566 47.486000061035 160 160 160
8.331809997559 10.905738830566 47.527000427246 159 159 159
8.331809997559 10.905738830566 47.568000793457 156 156 156
8.338746070862 10.902142524719 47.605995178223 156 156 156
8.331809997559 10.905738830566 47.649009704590 153 153 153
8.338746070862 10.902142524719 47.687004089355 149 149 149
8.338746070862 10.902142524719 47.726005554199 143 143 143
8.331809997559 10.905738830566 47.769004821777 142 142 142
8.338746070862 10.902142524719 47.806999206543 158 158 158
8.338746070862 10.902142524719 47.847007751465 154 154 154
8.331809997559 10.905738830566 47.888008117676 153 153 153
8.331809997559 10.905738830566 47.927009582520 153 153 153
8.331809997559 10.905738830566 47.967002868652 151 151 151
8.338746070862 10.902142524719 48.006996154785 148 148 148
8.331809997559 10.905738830566 48.045997619629 143 143 143
8.338746070862 10.902142524719 48.086006164551 145 145 145
8.331809997559 10.905738830566 48.125999450684 143 143 143
8.331809997559 10.905738830566 48.165000915527 148 148 148
8.331809997559 10.905738830566 48.205009460449 146 146 146
8.338746070862 10.902142524719 48.243003845215 148 148 148
8.331809997559 10.905738830566 48.284004211426 135 135 135
8.331809997559 10.905738830566 48.323005676270 131 131 131
8.331809997559 10.905738830566 48.362007141113 134 134 134
8.331809997559 10.905738830566 48.401008605957 137 137 137
8.332065582275 10.923206329346 48.441001892090 136 136 136
8.331809997559 10.905738830566 48.478996276855 138 138 138
8.332065582275 10.923206329346 48.519004821777 138 138 138
8.331809997559 10.905738830566 48.556999206543 140 140 140
8.331809997559 10.905738830566 48.596000671387 140 140 140
8.331809997559 10.905738830566 48.633995056152 137 137 137
8.331809997559 10.905738830566 48.674003601074 136 136 136
8.331809997559 10.905738830566 48.711997985840 142 142 142
8.331809997559 10.905738830566 48.750999450684 137 137 137
8.331809997559 10.905738830566 48.790000915527 114 114 114
8.338746070862 10.902142524719 48.829002380371 92 92 92
8.331809997559 10.905738830566 48.868003845215 101 101 101
8.332065582275 10.923206329346 48.907005310059 99 99 99
8.332065582275 10.923206329346 48.946006774902 99 99 99
8.325130462646 10.926801681519 48.985008239746 80 80 80
8.331809997559 10.905738830566 49.023002624512 81 81 81
8.331809997559 10.905738830566 49.062004089355 63 63 63
8.331809997559 10.905738830566 49.101005554199 58 58 58
8.338746070862 10.902142524719 49.140007019043 44 44 44
8.338746070862 10.902142524719 49.180000305176 21 21 21
8.338233947754 10.867208480835 49.299003601074 32 32 32
8.337720870972 10.832272529602 49.338996887207 39 39 39
8.337978363037 10.849740028381 49.377998352051 18 18 18
8.342098236084 10.654003143311 49.471000671387 74 74 74
8.336697578430 10.762403488159 49.504005432129 58 58 58
8.330785751343 10.835868835449 49.538002014160 40 40 40
8.330530166626 10.818401336670 49.577995300293 57 57 57
8.331809997559 10.905738830566 49.610008239746 58 58 58
8.324362754822 10.874399185181 49.652000427246 21 21 21
8.338233947754 10.867208480835 49.693000793457 93 93 93
8.332833290100 10.975607872009 49.721000671387 63 63 63
8.338746070862 10.902142524719 49.767997741699 93 93 93
8.330785751343 10.835868835449 49.816001892090 79 79 79
8.329761505127 10.765998840332 49.866004943848 37 37 37
8.335674285889 10.692533493042 49.916007995605 56 56 56
8.355456352234 10.611876487732 49.969001770020 33 33 33
8.449717521667 10.844608306885 48.698005676270 24 24 24
8.456909179688 10.858480453491 48.732002258301 37 37 37
8.449717521667 10.844608306885 48.765998840332 56 56 56
8.442782402039 10.848203659058 48.799995422363 60 60 60
8.449717521667 10.844608306885 48.834007263184 73 73 73
8.449717521667 10.844608306885 48.868003845215 82 82 82
8.449717521667 10.844608306885 48.901008605957 88 88 88
8.449717521667 10.844608306885 48.935005187988 89 89 89
8.449717521667 10.844608306885 48.970008850098 98 98 98
8.449717521667 10.844608306885 49.002998352051 105 105 105
8.449717521667 10.844608306885 49.036994934082 101 101 101
8.442782402039 10.848203659058 49.071006774902 107 107 107
8.449717521667 10.844608306885 49.105003356934 109 109 109
8.456909179688 10.858480453491 49.138008117676 106 106 106
8.449717521667 10.844608306885 49.174003601074 116 116 116
8.442782402039 10.848203659058 49.207008361816 114 114 114
8.442782402039 10.848203659058 49.241004943848 109 109 109
8.449717521667 10.844608306885 49.276008605957 113 113 113
8.449717521667 10.844608306885 49.310005187988 114 114 114
8.457165718079 10.875947952271 49.343009948730 120 120 120
8.442525863647 10.830737113953 49.381996154785 141 141 141
8.414014816284 10.792717933655 49.420005798340 155 155 155
8.435334205627 10.816865921021 49.452995300293 150 150 150
8.427886962891 10.785526275635 49.491996765137 149 149 149
8.435334205627 10.816865921021 49.523002624512 144 144 144
8.414014816284 10.792717933655 49.560005187988 136 136 136
8.457165718079 10.875947952271 49.583000183105 177 177 177
8.443037986755 10.865671157837 49.618995666504 144 144 144
8.457165718079 10.875947952271 49.652000427246 121 121 121
8.442782402039 10.848203659058 49.692008972168 134 134 134
8.428399085999 10.820461273193 49.730995178223 141 141 141
8.457165718079 10.875947952271 49.756996154785 172 172 172
8.457165718079 10.875947952271 49.791999816895 166 166 166
8.442782402039 10.848203659058 49.833000183105 153 153 153
8.442782402039 10.848203659058 49.868995666504 148 148 148
8.442782402039 10.848203659058 49.903007507324 146 146 146
8.457165718079 10.875947952271 49.931007385254 136 136 136
8.457165718079 10.875947952271 49.967002868652 133 133 133
8.457165718079 10.875947952271 50.002006530762 132 132 132
8.457165718079 10.875947952271 50.036994934082 129 129 129
8.332553863525 11.433357238770 49.312004089355 32 32 32
8.340001106262 11.464694976807 49.342002868652 99 99 99
8.339744567871 11.447227478027 49.374000549316 137 137 137
8.353873252869 11.457504272461 49.402000427246 124 124 124
8.340001106262 11.464694976807 49.433998107910 116 116 116
8.354384422302 11.492438316345 49.909996032715 82 82 82
8.354384422302 11.492438316345 49.937995910645 104 104 104
8.361320495605 11.488842010498 49.974006652832 50 50 50
8.332090377808 10.447990417480 50.045997619629 180 180 180
8.332090377808 10.447990417480 50.004005432129 194 194 194
8.332090377808 10.447990417480 49.961006164551 189 189 189
8.332090377808 10.447990417480 49.918006896973 214 214 214
8.332090377808 10.447990417480 49.875007629395 213 213 213
8.332090377808 10.447990417480 49.832008361816 157 157 157
8.318218231201 10.455181121826 49.577003479004 174 174 174
8.325155258179 10.451585769653 49.534004211426 190 190 190
8.318218231201 10.455181121826 49.491996765137 182 182 182
8.318218231201 10.455181121826 49.450004577637 187 187 187
8.318218231201 10.455181121826 49.407997131348 185 185 185
8.318218231201 10.455181121826 49.364997863770 135 135 135
8.394231796265 10.873374938965 50.073997497559 129 129 129
8.380104064941 10.863100051880 50.034004211426 154 154 154
8.373168945313 10.866695404053 49.993995666504 155 155 155
8.380104064941 10.863100051880 49.955009460449 161 161 161
8.373168945313 10.866695404053 49.913002014160 161 161 161
8.373168945313 10.866695404053 49.874000549316 158 158 158
8.373168945313 10.866695404053 49.832008361816 157 157 157
8.373168945313 10.866695404053 49.793998718262 162 162 162
8.373168945313 10.866695404053 49.754005432129 155 155 155
8.373168945313 10.866695404053 49.713996887207 159 159 159
8.373168945313 10.866695404053 49.674003601074 169 169 169
8.373168945313 10.866695404053 49.633995056152 165 165 165
8.373168945313 10.866695404053 49.594001770020 172 172 172
8.359041213989 10.856420516968 49.555000305176 173 173 173
8.373168945313 10.866695404053 49.515007019043 163 163 163
8.380360603333 10.880567550659 49.474998474121 168 168 168
8.380360603333 10.880567550659 49.435005187988 169 169 169
8.380360603333 10.880567550659 49.396003723145 169 169 169
8.380360603333 10.880567550659 49.355995178223 168 168 168
8.366232872009 10.870291709900 49.317008972168 171 171 171
8.380360603333 10.880567550659 49.277000427246 167 167 167
8.380360603333 10.880567550659 49.237998962402 171 171 171
8.366232872009 10.870291709900 49.198005676270 169 169 169
8.380360603333 10.880567550659 49.159004211426 167 167 167
8.366232872009 10.870291709900 49.118995666504 172 172 172
8.366232872009 10.870291709900 49.080009460449 161 161 161
8.373424530029 10.884162902832 49.041007995605 165 165 165
8.366232872009 10.870291709900 49.000999450684 167 167 167
8.366232872009 10.870291709900 48.961997985840 164 164 164
8.366232872009 10.870291709900 48.922004699707 171 171 171
8.373424530029 10.884162902832 48.883003234863 160 160 160
8.366488456726 10.887758255005 48.844001770020 161 161 161
8.366488456726 10.887758255005 48.804008483887 166 166 166
8.366488456726 10.887758255005 48.765007019043 164 164 164
8.373424530029 10.884162902832 48.726005554199 163 163 163
8.366488456726 10.887758255005 48.685997009277 159 159 159
8.366488456726 10.887758255005 48.646003723145 162 162 162
8.366488456726 10.887758255005 48.607002258301 158 158 158
8.366488456726 10.887758255005 48.567008972168 160 160 160
8.366488456726 10.887758255005 48.528007507324 160 160 160
8.359553337097 10.891354560852 48.489006042480 160 160 160
8.359553337097 10.891354560852 48.448997497559 160 160 160
8.359553337097 10.891354560852 48.409004211426 157 157 157
8.359553337097 10.891354560852 48.370002746582 155 155 155
8.359553337097 10.891354560852 48.331001281738 149 149 149
8.359553337097 10.891354560852 48.290000915527 155 155 155
8.359553337097 10.891354560852 48.250999450684 157 157 157
8.338233947754 10.867208480835 48.209999084473 152 152 152
8.359553337097 10.891354560852 48.170997619629 155 155 155
8.359553337097 10.891354560852 48.131004333496 160 160 160
8.359553337097 10.891354560852 48.090995788574 152 152 152
8.359553337097 10.891354560852 48.051002502441 154 154 154
8.359553337097 10.891354560852 48.011009216309 158 158 158
8.352617263794 10.894950866699 47.972007751465 155 155 155
8.338489532471 10.884675979614 47.930000305176 153 153 153
8.338489532471 10.884675979614 47.890007019043 151 151 151
8.338489532471 10.884675979614 47.849006652832 152 152 152
8.338489532471 10.884675979614 47.808998107910 155 155 155
8.338489532471 10.884675979614 47.767997741699 152 152 152
8.352617263794 10.894950866699 47.728996276855 156 156 156
8.352617263794 10.894950866699 47.689002990723 153 153 153
8.338489532471 10.884675979614 47.646995544434 154 154 154
8.352617263794 10.894950866699 47.607002258301 149 149 149
8.338489532471 10.884675979614 47.564002990723 150 150 150
8.352617263794 10.894950866699 47.525001525879 151 151 151
8.345681190491 10.898546218872 47.483009338379 150 150 150
8.345681190491 10.898546218872 47.441001892090 142 142 142
8.352617263794 10.894950866699 47.402000427246 142 142 142
8.324618339539 10.891866683960 47.060005187988 131 131 131
8.338746070862 10.902142524719 47.023002624512 141 141 141
8.338746070862 10.902142524719 46.980003356934 145 145 145
8.371608734131 11.237107276917 50.028999328613 75 75 75
8.364416122437 11.223236083984 49.991996765137 185 185 185
8.364672660828 11.240703582764 49.954002380371 191 191 191
8.364672660828 11.240703582764 49.916007995605 186 186 186
8.371608734131 11.237107276917 49.875999450684 216 216 216
8.364672660828 11.240703582764 49.840003967285 203 203 203
8.364672660828 11.240703582764 49.802009582520 177 177 177
8.336418151855 11.220151901245 49.577003479004 184 184 184
8.336418151855 11.220151901245 49.539009094238 212 212 212
8.336418151855 11.220151901245 49.502006530762 199 199 199
8.336418151855 11.220151901245 49.463996887207 194 194 194
8.336418151855 11.220151901245 49.426002502441 201 201 201
8.336418151855 11.220151901245 49.388999938965 201 201 201
8.343608856201 11.234023094177 49.351005554199 136 136 136
8.347728729248 11.038286209106 49.502006530762 42 42 42
8.333345413208 11.010542869568 49.540000915527 117 117 117
8.319217681885 11.000267028809 49.575004577637 134 134 134
8.319217681885 11.000267028809 49.609001159668 132 132 132
8.333345413208 11.010542869568 49.640998840332 134 134 134
8.326410293579 11.014139175415 49.674995422363 140 140 140
8.326410293579 11.014139175415 49.709007263184 138 138 138
8.347473144531 11.020818710327 49.743003845215 147 147 147
8.326410293579 11.014139175415 49.778007507324 138 138 138
8.347473144531 11.020818710327 49.812004089355 138 138 138
8.347473144531 11.020818710327 49.846000671387 138 138 138
8.347728729248 11.038286209106 49.879005432129 83 83 83
8.368256568909 11.485246658325 50.060997009277 107 107 107
8.368256568909 11.485246658325 50.024009704590 175 175 175
8.368256568909 11.485246658325 49.986000061035 192 192 192
8.368256568909 11.485246658325 49.948997497559 188 188 188
8.354128837585 11.474971771240 49.915000915527 153 153 153
8.333065986633 11.468291282654 49.478996276855 130 130 130
8.354128837585 11.474971771240 49.442008972168 190 190 190
8.354128837585 11.474971771240 49.405006408691 213 213 213
8.333065986633 11.468291282654 49.370002746582 184 184 184
8.333065986633 11.468291282654 49.334007263184 101 101 101
8.356200218201 11.139493942261 49.952995300293 165 165 165
8.349265098572 11.143090248108 49.914009094238 183 183 183
8.356200218201 11.139493942261 49.875999450684 186 186 186
8.349265098572 11.143090248108 49.836997985840 197 197 197
8.356200218201 11.139493942261 49.797996520996 205 205 205
8.356200218201 11.139493942261 49.761009216309 183 183 183
8.356200218201 11.139493942261 49.722007751465 109 109 109
8.327945709229 11.118943214417 49.685005187988 150 150 150
8.356200218201 11.139493942261 49.644996643066 187 187 187
8.356200218201 11.139493942261 49.607002258301 215 215 215
8.327945709229 11.118943214417 49.569007873535 192 192 192
8.327945709229 11.118943214417 49.530998229980 214 214 214
8.327945709229 11.118943214417 49.491996765137 193 193 193
8.327945709229 11.118943214417 49.454002380371 157 157 157
8.442782402039 10.848203659058 50.088996887207 90 90 90
8.456909179688 10.858480453491 50.045997619629 101 101 101
8.435846328735 10.851799964905 50.010002136230 100 100 100
8.442782402039 10.848203659058 49.968009948730 96 96 96
8.442782402039 10.848203659058 49.927009582520 98 98 98
8.407591819763 10.831249237061 49.894004821777 136 136 136
8.379335403442 10.810697555542 49.860008239746 177 177 177
8.421718597412 10.841524124146 49.812995910645 197 197 197
8.379335403442 10.810697555542 49.778999328613 176 176 176
8.379335403442 10.810697555542 49.737998962402 173 173 173
8.379335403442 10.810697555542 49.698005676270 184 184 184
8.386528015137 10.824569702148 49.655006408691 185 185 185
8.407591819763 10.831249237061 49.612998962402 187 187 187
8.344144821167 10.793742179871 49.579002380371 180 180 180
8.379335403442 10.810697555542 49.536994934082 143 143 143
8.457165718079 10.875947952271 49.489006042480 73 73 73
8.443037986755 10.865671157837 49.448997497559 57 57 57
8.442782402039 10.848203659058 49.411003112793 64 64 64
8.442782402039 10.848203659058 49.371009826660 47 47 47
8.442782402039 10.848203659058 49.331001281738 40 40 40
8.435846328735 10.851799964905 49.291999816895 26 26 26
8.435846328735 10.851799964905 49.252998352051 19 19 19
8.324897766113 10.434118270874 50.107002258301 166 166 166
8.324897766113 10.434118270874 50.064002990723 186 186 186
8.324897766113 10.434118270874 50.019996643066 190 190 190
8.324897766113 10.434118270874 49.976997375488 206 206 206
8.324897766113 10.434118270874 49.933998107910 215 215 215
8.324897766113 10.434118270874 49.890998840332 181 181 181
8.324897766113 10.434118270874 49.592002868652 93 93 93
8.325155258179 10.451585769653 49.549003601074 178 178 178
8.303834915161 10.427438735962 49.508003234863 188 188 188
8.303834915161 10.427438735962 49.465003967285 183 183 183
8.303834915161 10.427438735962 49.422996520996 193 193 193
8.303834915161 10.427438735962 49.379997253418 180 180 180
8.303834915161 10.427438735962 49.338005065918 70 70 70
