27.187522888184 12.001215934753 3.604999542236 131 131 131
27.125070571899 12.003645896912 3.715999603271 120 120 120
27.125070571899 12.003645896912 3.826999664307 127 127 127
27.125070571899 12.003645896912 3.934999465942 137 137 137
27.125070571899 12.003645896912 4.044000625610 145 145 145
27.125070571899 12.003645896912 4.152000427246 142 142 142
27.125070571899 12.003645896912 4.260999679565 147 147 147
27.125070571899 12.003645896912 4.368999481201 149 149 149
27.125070571899 12.003645896912 4.474000930786 181 181 181
27.062616348267 12.006075859070 4.580999374390 208 208 208
27.062616348267 12.006075859070 4.687999725342 226 226 226
27.062616348267 12.006075859070 4.792999267578 255 255 255
27.062616348267 12.006075859070 4.899000167847 255 255 255
27.062616348267 12.006075859070 5.004999160767 255 255 255
27.062616348267 12.006075859070 5.110000610352 224 224 224
27.062616348267 12.006075859070 5.215999603271 218 218 218
27.062616348267 12.006075859070 5.322000503540 208 208 208
27.062616348267 12.006075859070 5.429000854492 186 186 186
27.062616348267 12.006075859070 5.534999847412 155 155 155
27.065046310425 12.068528175354 5.641000747681 121 121 121
27.065046310425 12.068528175354 5.747999191284 90 90 90
27.065046310425 12.068528175354 5.854999542236 71 71 71
27.065046310425 12.068528175354 5.961000442505 59 59 59
27.312427520752 11.996356010437 4.356000900269 109 109 109
27.312427520752 11.996356010437 4.464000701904 51 51 51
27.185092926025 11.938762664795 4.579000473022 132 132 132
27.185092926025 11.938762664795 4.687000274658 99 99 99
27.312427520752 11.996356010437 4.794000625610 111 111 111
27.312427520752 11.996356010437 4.902999877930 89 89 89
27.185092926025 11.938762664795 5.225999832153 64 64 64
27.185092926025 11.938762664795 5.333999633789 206 206 206
27.185092926025 11.938762664795 5.441999435425 204 204 204
27.185092926025 11.938762664795 5.551000595093 200 200 200
27.185092926025 11.938762664795 5.659000396729 148 148 148
27.185092926025 11.938762664795 5.764999389648 137 137 137
27.185092926025 11.938762664795 5.874000549316 139 139 139
27.185092926025 11.938762664795 5.981000900269 140 140 140
27.370021820068 11.869019508362 4.356000900269 1 1 1
27.307567596436 11.871450424194 4.467000961304 98 98 98
27.370021820068 11.869019508362 4.576000213623 53 53 53
27.307567596436 11.871450424194 4.687000274658 69 69 69
27.307567596436 11.871450424194 4.795999526978 83 83 83
27.370021820068 11.869019508362 4.906000137329 63 63 63
27.245115280151 11.873880386353 5.229000091553 199 199 199
27.245115280151 11.873880386353 5.337999343872 198 198 198
27.245115280151 11.873880386353 5.447000503540 191 191 191
27.245115280151 11.873880386353 5.555999755859 200 200 200
27.365161895752 11.744114875793 4.577999114990 31 31 31
27.365161895752 11.744114875793 4.687999725342 65 65 65
27.365161895752 11.744114875793 4.798000335693 68 68 68
27.365161895752 11.744114875793 4.908000946045 47 47 47
27.237825393677 11.686521530151 5.124000549316 193 193 193
27.237825393677 11.686521530151 5.232000350952 195 195 195
27.237825393677 11.686521530151 5.340999603271 139 139 139
27.237825393677 11.686521530151 5.451000213623 47 47 47
27.240255355835 11.748974800110 5.559999465942 199 199 199
27.237825393677 11.686521530151 5.669000625610 199 199 199
27.295417785645 11.559185981750 5.017000198364 175 175 175
27.295417785645 11.559185981750 5.125999450684 193 193 193
27.295417785645 11.559185981750 5.235000610352 179 179 179
27.295417785645 11.559185981750 5.562000274658 196 196 196
27.295417785645 11.559185981750 5.672000885010 199 199 199
27.295417785645 11.559185981750 5.783000946045 17 17 17
27.292987823486 11.496733665466 5.128000259399 193 193 193
27.292987823486 11.496733665466 5.674999237061 205 205 205
27.292987823486 11.496733665466 5.784999847412 178 178 178
27.206962585449 12.500837326050 5.801000595093 108 108 108
27.206962585449 12.500837326050 5.690999984741 142 142 142
27.206962585449 12.500837326050 5.261999130249 97 97 97
27.206962585449 12.500837326050 5.153999328613 139 139 139
27.206962585449 12.500837326050 5.047000885010 91 91 91
27.142080307007 12.440814971924 5.799999237061 125 125 125
27.204532623291 12.438385009766 5.694999694824 168 168 168
27.204532623291 12.438385009766 5.586000442505 141 141 141
27.204532623291 12.438385009766 5.263999938965 148 148 148
27.204532623291 12.438385009766 5.156999588013 144 144 144
27.387031555176 12.306189537048 4.947000503540 22 22 22
27.324577331543 12.308619499207 4.836999893188 56 56 56
27.387031555176 12.306189537048 4.728000640869 53 53 53
27.324577331543 12.308619499207 4.618999481201 18 18 18
27.134790420532 12.253456115723 5.697999954224 229 229 229
27.197242736816 12.251026153564 5.592000961304 156 156 156
27.197242736816 12.251026153564 5.485000610352 141 141 141
27.197242736816 12.251026153564 5.377000808716 141 141 141
27.197242736816 12.251026153564 5.268999099731 146 146 146
27.317287445068 12.121260643005 4.950000762939 40 40 40
27.317287445068 12.121260643005 4.840999603271 46 46 46
27.257265090942 12.186143875122 4.731000900269 71 71 71
27.317287445068 12.121260643005 4.621999740601 95 95 95
27.319717407227 12.183713912964 4.513000488281 83 83 83
27.317287445068 12.121260643005 4.403999328613 40 40 40
27.317287445068 12.121260643005 4.292999267578 22 22 22
27.189952850342 12.063668251038 5.597000122070 140 140 140
27.189952850342 12.063668251038 5.488000869751 161 161 161
27.189952850342 12.063668251038 5.381000518799 153 153 153
27.189952850342 12.063668251038 5.273000717163 126 126 126
27.312427520752 11.996356010437 4.952999114990 40 40 40
27.249975204468 11.998785972595 4.842000961304 60 60 60
27.189952850342 12.063668251038 4.733999252319 132 132 132
27.189952850342 12.063668251038 4.625999450684 148 148 148
27.189952850342 12.063668251038 4.517999649048 172 172 172
27.189952850342 12.063668251038 4.410999298096 219 219 219
27.189952850342 12.063668251038 4.302999496460 184 184 184
27.189952850342 12.063668251038 4.195999145508 167 167 167
27.189952850342 12.063668251038 4.087999343872 172 172 172
27.189952850342 12.063668251038 3.979999542236 179 179 179
27.189952850342 12.063668251038 3.872999191284 175 175 175
27.189952850342 12.063668251038 3.764999389648 159 159 159
27.127500534058 12.066098213196 3.658000946045 159 159 159
27.129930496216 12.128550529480 3.549999237061 152 152 152
27.129930496216 12.128550529480 3.443000793457 144 144 144
27.129930496216 12.128550529480 3.336000442505 144 144 144
27.129930496216 12.128550529480 3.229000091553 142 142 142
27.129930496216 12.128550529480 3.121000289917 148 148 148
27.129930496216 12.128550529480 3.016000747681 149 149 149
27.067476272583 12.130980491638 2.908000946045 135 135 135
27.067476272583 12.130980491638 2.802000045776 135 135 135
27.125070571899 12.003645896912 5.916000366211 141 141 141
27.125070571899 12.003645896912 5.805999755859 126 126 126
27.125070571899 12.003645896912 5.697000503540 143 143 143
27.125070571899 12.003645896912 5.589000701904 157 157 157
27.125070571899 12.003645896912 5.482000350952 172 172 172
27.062616348267 12.006075859070 5.374000549316 180 180 180
27.062616348267 12.006075859070 5.267000198364 187 187 187
27.065046310425 12.068528175354 5.159999847412 189 189 189
27.065046310425 12.068528175354 5.054000854492 193 193 193
27.065046310425 12.068528175354 4.947999954224 195 195 195
27.065046310425 12.068528175354 4.842000961304 200 200 200
27.065046310425 12.068528175354 4.736999511719 218 218 218
27.065046310425 12.068528175354 4.631000518799 233 233 233
27.065046310425 12.068528175354 4.524999618530 255 255 255
27.065046310425 12.068528175354 4.419000625610 255 255 255
27.065046310425 12.068528175354 4.313999176025 187 187 187
27.065046310425 12.068528175354 4.208999633789 207 207 207
27.065046310425 12.068528175354 4.101999282837 177 177 177
27.002593994141 12.070958137512 3.996999740601 145 145 145
27.065046310425 12.068528175354 3.889999389648 121 121 121
27.002593994141 12.070958137512 3.784000396729 102 102 102
27.002593994141 12.070958137512 3.677999496460 81 81 81
27.065046310425 12.068528175354 3.569999694824 72 72 72
27.065046310425 12.068528175354 3.461999893188 58 58 58
27.065046310425 12.068528175354 3.354000091553 52 52 52
27.002593994141 12.070958137512 3.247999191284 30 30 30
27.002593994141 12.070958137512 3.141000747681 13 13 13
27.242685317993 11.811427116394 5.607000350952 133 133 133
27.242685317993 11.811427116394 5.499000549316 144 144 144
27.245115280151 11.873880386353 5.388000488281 146 146 146
27.245115280151 11.873880386353 5.278999328613 152 152 152
27.242685317993 11.811427116394 5.172000885010 105 105 105
27.365161895752 11.744114875793 4.849000930786 27 27 27
27.365161895752 11.744114875793 4.739000320435 53 53 53
27.365161895752 11.744114875793 4.628999710083 22 22 22
27.297847747803 11.621639251709 5.722999572754 41 41 41
27.297847747803 11.621639251709 5.611999511719 146 146 146
27.235395431519 11.624069213867 5.502000808716 127 127 127
27.237825393677 11.686521530151 5.283000946045 148 148 148
27.237825393677 11.686521530151 5.173999786377 152 152 152
27.235395431519 11.624069213867 5.065999984741 90 90 90
27.292987823486 11.496733665466 5.725999832153 138 138 138
27.292987823486 11.496733665466 5.615999221802 178 178 178
27.230535507202 11.499163627625 5.177000045776 147 147 147
27.292987823486 11.496733665466 5.068000793457 156 156 156
27.292987823486 11.496733665466 4.959999084473 30 30 30
27.288127899170 11.371828079224 5.618000030518 39 39 39
27.144510269165 12.503267288208 5.797000885010 147 147 147
27.144510269165 12.503267288208 5.688999176025 148 148 148
27.206962585449 12.500837326050 5.260000228882 123 123 123
27.206962585449 12.500837326050 5.152000427246 136 136 136
27.144510269165 12.503267288208 5.045000076294 79 79 79
27.327007293701 12.371071815491 4.833000183105 29 29 29
27.329437255859 12.433525085449 4.724000930786 34 34 34
27.139650344849 12.378361701965 5.694999694824 150 150 150
27.199672698975 12.313479423523 5.586999893188 152 152 152
27.199672698975 12.313479423523 5.372999191284 71 71 71
27.199672698975 12.313479423523 5.263999938965 138 138 138
27.199672698975 12.313479423523 5.156000137329 125 125 125
27.322147369385 12.246166229248 4.945999145508 34 34 34
27.322147369385 12.246166229248 4.836000442505 60 60 60
27.259695053101 12.248596191406 4.726999282837 49 49 49
27.322147369385 12.246166229248 4.618000030518 53 53 53
27.322147369385 12.246166229248 4.399000167847 23 23 23
27.192382812500 12.126120567322 5.590999603271 149 149 149
27.192382812500 12.126120567322 5.482999801636 152 152 152
27.192382812500 12.126120567322 5.375000000000 143 143 143
27.192382812500 12.126120567322 5.267000198364 137 137 137
27.314857482910 12.058808326721 4.947999954224 19 19 19
27.314857482910 12.058808326721 4.837999343872 91 91 91
27.252405166626 12.061238288879 4.729000091553 70 70 70
27.254835128784 12.123690605164 4.620000839233 105 105 105
27.314857482910 12.058808326721 4.510000228882 21 21 21
27.314857482910 12.058808326721 4.400999069214 72 72 72
27.314857482910 12.058808326721 4.291000366211 19 19 19
27.129930496216 12.128550529480 3.542999267578 16 16 16
27.129930496216 12.128550529480 3.431999206543 55 55 55
27.129930496216 12.128550529480 3.322000503540 80 80 80
27.129930496216 12.128550529480 3.211999893188 91 91 91
27.129930496216 12.128550529480 3.104999542236 98 98 98
27.129930496216 12.128550529480 2.993999481201 104 104 104
27.129930496216 12.128550529480 2.881999969482 105 105 105
27.129930496216 12.128550529480 2.770999908447 115 115 115
27.187522888184 12.001215934753 5.920999526978 119 119 119
27.187522888184 12.001215934753 5.809999465942 120 120 120
27.187522888184 12.001215934753 5.700000762939 125 125 125
27.187522888184 12.001215934753 5.592000961304 136 136 136
27.187522888184 12.001215934753 5.482999801636 140 140 140
27.187522888184 12.001215934753 5.375000000000 144 144 144
27.125070571899 12.003645896912 5.266000747681 141 141 141
27.125070571899 12.003645896912 5.159000396729 145 145 145
27.125070571899 12.003645896912 5.051000595093 157 157 157
27.125070571899 12.003645896912 4.944000244141 176 176 176
27.065046310425 12.068528175354 4.836999893188 170 170 170
27.065046310425 12.068528175354 4.731000900269 189 189 189
27.065046310425 12.068528175354 4.625000000000 222 222 222
27.065046310425 12.068528175354 4.518999099731 248 248 248
27.065046310425 12.068528175354 4.413999557495 255 255 255
27.065046310425 12.068528175354 4.308000564575 200 200 200
27.002593994141 12.070958137512 4.201999664307 232 232 232
27.002593994141 12.070958137512 4.096000671387 216 216 216
27.002593994141 12.070958137512 3.989999771118 206 206 206
27.002593994141 12.070958137512 3.885000228882 199 199 199
27.002593994141 12.070958137512 3.777999877930 199 199 199
27.002593994141 12.070958137512 3.672000885010 191 191 191
27.002593994141 12.070958137512 3.562999725342 194 194 194
27.002593994141 12.070958137512 3.458000183105 177 177 177
27.002593994141 12.070958137512 3.350999832153 173 173 173
27.002593994141 12.070958137512 3.243999481201 143 143 143
27.005023956299 12.133410453796 3.138000488281 119 119 119
27.002593994141 12.070958137512 3.027000427246 109 109 109
27.002593994141 12.070958137512 2.916999816895 97 97 97
27.005023956299 12.133410453796 2.811000823975 79 79 79
27.060186386108 11.943622589111 5.902999877930 54 54 54
27.060186386108 11.943622589111 5.795999526978 42 42 42
27.060186386108 11.943622589111 5.688999176025 28 28 28
27.182662963867 11.876310348511 5.597000122070 122 122 122
27.245115280151 11.873880386353 5.489999771118 123 123 123
27.245115280151 11.873880386353 5.381999969482 140 140 140
27.245115280151 11.873880386353 5.274000167847 151 151 151
27.245115280151 11.873880386353 5.166000366211 53 53 53
27.365161895752 11.744114875793 4.843000411987 45 45 45
27.365161895752 11.744114875793 4.732999801636 135 135 135
27.365161895752 11.744114875793 4.622999191284 44 44 44
27.297847747803 11.621639251709 5.717000961304 35 35 35
27.235395431519 11.624069213867 5.607000350952 149 149 149
27.235395431519 11.624069213867 5.496000289917 128 128 128
27.237825393677 11.686521530151 5.277999877930 150 150 150
27.235395431519 11.624069213867 5.169000625610 151 151 151
27.235395431519 11.624069213867 5.061000823975 78 78 78
27.292987823486 11.496733665466 5.721000671387 139 139 139
27.292987823486 11.496733665466 5.611000061035 173 173 173
27.230535507202 11.499163627625 5.172000885010 144 144 144
27.230535507202 11.499163627625 5.063999176025 150 150 150
27.230535507202 11.499163627625 4.954999923706 7 7 7
27.146940231323 12.565720558167 5.104000091553 190 190 190
27.146940231323 12.565720558167 5.211000442505 192 192 192
27.146940231323 12.565720558167 5.746999740601 167 167 167
27.204532623291 12.438385009766 5.106000900269 178 178 178
27.204532623291 12.438385009766 5.212999343872 192 192 192
27.204532623291 12.438385009766 5.320999145508 120 120 120
27.142080307007 12.440814971924 5.642999649048 206 206 206
27.142080307007 12.440814971924 5.752000808716 192 192 192
27.142080307007 12.440814971924 5.860000610352 35 35 35
27.327007293701 12.371071815491 4.676000595093 59 59 59
27.327007293701 12.371071815491 4.784999847412 63 63 63
27.327007293701 12.371071815491 4.893999099731 43 43 43
27.134790420532 12.253456115723 5.215999603271 191 191 191
27.134790420532 12.253456115723 5.322999954224 191 191 191
27.134790420532 12.253456115723 5.538999557495 196 196 196
27.134790420532 12.253456115723 5.645999908447 186 186 186
27.134790420532 12.253456115723 5.754999160767 71 71 71
27.125070571899 12.003645896912 2.843999862671 138 138 138
27.065046310425 12.068528175354 2.959999084473 135 135 135
27.065046310425 12.068528175354 3.070999145508 132 132 132
27.065046310425 12.068528175354 3.184999465942 131 131 131
27.065046310425 12.068528175354 3.295999526978 132 132 132
27.065046310425 12.068528175354 3.405000686646 160 160 160
27.065046310425 12.068528175354 3.510999679565 173 173 173
27.065046310425 12.068528175354 3.620000839233 173 173 173
27.065046310425 12.068528175354 3.725999832153 175 175 175
27.065046310425 12.068528175354 3.833000183105 181 181 181
27.065046310425 12.068528175354 3.940999984741 175 175 175
27.065046310425 12.068528175354 4.047000885010 182 182 182
27.065046310425 12.068528175354 4.152999877930 186 186 186
27.065046310425 12.068528175354 4.259000778198 194 194 194
27.065046310425 12.068528175354 4.365999221802 159 159 159
27.065046310425 12.068528175354 4.471000671387 135 135 135
27.065046310425 12.068528175354 4.576000213623 134 134 134
27.065046310425 12.068528175354 4.680999755859 122 122 122
27.065046310425 12.068528175354 4.787000656128 96 96 96
27.065046310425 12.068528175354 4.893999099731 83 83 83
27.065046310425 12.068528175354 4.999000549316 23 23 23
27.127500534058 12.066098213196 5.215999603271 75 75 75
27.192382812500 12.126120567322 5.325000762939 196 196 196
27.127500534058 12.066098213196 5.431999206543 183 183 183
27.192382812500 12.126120567322 5.541000366211 191 191 191
27.127500534058 12.066098213196 5.648000717163 96 96 96
27.247545242310 11.936332702637 4.353000640869 116 116 116
27.187522888184 12.001215934753 4.464000701904 132 132 132
27.187522888184 12.001215934753 4.572000503540 162 162 162
27.187522888184 12.001215934753 4.679000854492 183 183 183
27.187522888184 12.001215934753 4.787000656128 197 197 197
27.187522888184 12.001215934753 4.895000457764 215 215 215
27.187522888184 12.001215934753 5.002000808716 183 183 183
27.187522888184 12.001215934753 5.108999252319 173 173 173
27.187522888184 12.001215934753 5.215999603271 161 161 161
27.125070571899 12.003645896912 5.322999954224 154 154 154
27.122640609741 11.941192626953 5.429000854492 150 150 150
27.122640609741 11.941192626953 5.534000396729 143 143 143
27.122640609741 11.941192626953 5.639999389648 162 162 162
27.122640609741 11.941192626953 5.746999740601 173 173 173
27.122640609741 11.941192626953 5.854999542236 196 196 196
27.122640609741 11.941192626953 5.961000442505 195 195 195
27.370021820068 11.869019508362 4.347999572754 46 46 46
27.370021820068 11.869019508362 4.458000183105 54 54 54
27.307567596436 11.871450424194 4.568000793457 85 85 85
27.307567596436 11.871450424194 4.677999496460 60 60 60
27.307567596436 11.871450424194 4.787000656128 72 72 72
27.370021820068 11.869019508362 4.895999908447 99 99 99
27.245115280151 11.873880386353 5.219999313354 190 190 190
27.245115280151 11.873880386353 5.327999114990 192 192 192
27.245115280151 11.873880386353 5.437000274658 196 196 196
27.245115280151 11.873880386353 5.547000885010 197 197 197
27.365161895752 11.744114875793 4.568000793457 47 47 47
27.365161895752 11.744114875793 4.677999496460 60 60 60
27.365161895752 11.744114875793 4.788000106812 62 62 62
27.365161895752 11.744114875793 4.896999359131 53 53 53
27.237825393677 11.686521530151 5.114000320435 181 181 181
27.237825393677 11.686521530151 5.222000122070 190 190 190
27.237825393677 11.686521530151 5.329999923706 159 159 159
27.237825393677 11.686521530151 5.440000534058 103 103 103
27.237825393677 11.686521530151 5.548999786377 196 196 196
27.240255355835 11.748974800110 5.659000396729 181 181 181
27.230535507202 11.499163627625 5.007999420166 175 175 175
27.230535507202 11.499163627625 5.115999221802 193 193 193
27.230535507202 11.499163627625 5.225000381470 169 169 169
27.295417785645 11.559185981750 5.552999496460 194 194 194
27.295417785645 11.559185981750 5.662000656128 199 199 199
27.290557861328 11.434280395508 5.118000030518 161 161 161
27.290557861328 11.434280395508 5.665000915527 202 202 202
27.290557861328 11.434280395508 5.775999069214 155 155 155
27.146940231323 12.565720558167 5.775999069214 204 204 204
27.146940231323 12.565720558167 5.680999755859 223 223 223
27.206962585449 12.500837326050 5.215000152588 236 236 236
27.144510269165 12.503267288208 5.121999740601 241 241 241
27.144510269165 12.503267288208 5.027999877930 217 217 217
27.204532623291 12.438385009766 5.781999588013 208 208 208
27.204532623291 12.438385009766 5.687000274658 229 229 229
27.204532623291 12.438385009766 5.593999862671 231 231 231
27.204532623291 12.438385009766 5.312000274658 210 210 210
27.204532623291 12.438385009766 5.219999313354 237 237 237
27.204532623291 12.438385009766 5.125999450684 238 238 238
27.329437255859 12.433525085449 4.851999282837 53 53 53
27.329437255859 12.433525085449 4.757999420166 75 75 75
27.329437255859 12.433525085449 4.663000106812 71 71 71
27.197242736816 12.251026153564 5.695999145508 180 180 180
27.197242736816 12.251026153564 5.600000381470 229 229 229
27.197242736816 12.251026153564 5.506000518799 238 238 238
27.197242736816 12.251026153564 5.413000106812 125 125 125
27.197242736816 12.251026153564 5.319000244141 235 235 235
27.197242736816 12.251026153564 5.225999832153 236 236 236
27.322147369385 12.246166229248 4.951999664307 17 17 17
27.322147369385 12.246166229248 4.857000350952 77 77 77
27.257265090942 12.186143875122 4.760999679565 93 93 93
27.257265090942 12.186143875122 4.666999816895 83 83 83
27.257265090942 12.186143875122 4.572999954224 145 145 145
27.257265090942 12.186143875122 4.479000091553 85 85 85
27.257265090942 12.186143875122 4.385000228882 46 46 46
27.192382812500 12.126120567322 2.770999908447 158 158 158
27.189952850342 12.063668251038 5.604999542236 85 85 85
27.189952850342 12.063668251038 5.510000228882 231 231 231
27.189952850342 12.063668251038 5.415000915527 229 229 229
27.189952850342 12.063668251038 5.322999954224 235 235 235
27.189952850342 12.063668251038 5.226999282837 116 116 116
27.189952850342 12.063668251038 5.132999420166 168 168 168
27.125070571899 12.003645896912 5.040000915527 174 174 174
27.125070571899 12.003645896912 4.945999145508 152 152 152
27.125070571899 12.003645896912 4.853000640869 165 165 165
27.125070571899 12.003645896912 4.760000228882 174 174 174
27.125070571899 12.003645896912 4.666999816895 202 202 202
27.125070571899 12.003645896912 4.575000762939 188 188 188
27.127500534058 12.066098213196 4.482999801636 210 210 210
27.065046310425 12.068528175354 4.392000198364 227 227 227
27.002593994141 12.070958137512 4.301000595093 227 227 227
27.065046310425 12.068528175354 4.209999084473 235 235 235
27.002593994141 12.070958137512 4.118000030518 237 237 237
27.065046310425 12.068528175354 4.027000427246 229 229 229
27.065046310425 12.068528175354 3.934999465942 221 221 221
27.002593994141 12.070958137512 3.843999862671 204 204 204
27.002593994141 12.070958137512 3.750999450684 198 198 198
27.002593994141 12.070958137512 3.659999847412 192 192 192
27.002593994141 12.070958137512 3.566999435425 181 181 181
27.065046310425 12.068528175354 3.472999572754 171 171 171
27.002593994141 12.070958137512 3.381000518799 146 146 146
27.065046310425 12.068528175354 3.287000656128 119 119 119
27.065046310425 12.068528175354 3.194000244141 99 99 99
27.065046310425 12.068528175354 3.099000930786 79 79 79
27.065046310425 12.068528175354 3.002000808716 59 59 59
27.065046310425 12.068528175354 2.910999298096 39 39 39
27.065046310425 12.068528175354 2.809000015259 12 12 12
27.122640609741 11.941192626953 5.967000961304 154 154 154
27.122640609741 11.941192626953 5.872999191284 147 147 147
27.122640609741 11.941192626953 5.778999328613 118 118 118
27.122640609741 11.941192626953 5.684000015259 100 100 100
27.122640609741 11.941192626953 5.590999603271 80 80 80
27.185092926025 11.938762664795 5.511999130249 201 201 201
27.185092926025 11.938762664795 5.416999816895 211 211 211
27.185092926025 11.938762664795 5.323999404907 215 215 215
27.185092926025 11.938762664795 5.229999542236 193 193 193
27.370021820068 11.869019508362 4.860000610352 143 143 143
27.307567596436 11.871450424194 4.764999389648 81 81 81
27.245115280151 11.873880386353 4.670000076294 83 83 83
27.307567596436 11.871450424194 4.576000213623 154 154 154
27.370021820068 11.869019508362 4.481000900269 72 72 72
27.370021820068 11.869019508362 4.385999679565 139 139 139
27.240255355835 11.748974800110 5.613000869751 217 217 217
27.240255355835 11.748974800110 5.518999099731 233 233 233
27.240255355835 11.748974800110 5.423000335693 227 227 227
27.240255355835 11.748974800110 5.327999114990 234 234 234
27.240255355835 11.748974800110 5.233999252319 236 236 236
27.240255355835 11.748974800110 5.139999389648 227 227 227
27.365161895752 11.744114875793 4.864000320435 71 71 71
27.365161895752 11.744114875793 4.767999649048 76 76 76
27.365161895752 11.744114875793 4.673000335693 83 83 83
27.365161895752 11.744114875793 4.577999114990 71 71 71
27.295417785645 11.559185981750 5.715999603271 164 164 164
27.232965469360 11.561615943909 5.618000030518 231 231 231
27.232965469360 11.561615943909 5.523000717163 236 236 236
27.232965469360 11.561615943909 5.236999511719 233 233 233
27.232965469360 11.561615943909 5.142999649048 236 236 236
27.232965469360 11.561615943909 5.048999786377 235 235 235
27.292987823486 11.496733665466 5.718999862671 234 234 234
27.292987823486 11.496733665466 5.622999191284 214 214 214
27.292987823486 11.496733665466 5.146999359131 220 220 220
27.230535507202 11.499163627625 5.052000045776 229 229 229
27.225675582886 11.374258041382 5.729999542236 99 99 99
27.225675582886 11.374258041382 5.621000289917 133 133 133
27.225675582886 11.374258041382 5.072999954224 90 90 90
27.230535507202 11.499163627625 5.725000381470 100 100 100
27.230535507202 11.499163627625 5.614999771118 136 136 136
27.230535507202 11.499163627625 5.506000518799 100 100 100
27.230535507202 11.499163627625 5.285999298096 72 72 72
27.230535507202 11.499163627625 5.179000854492 146 146 146
27.230535507202 11.499163627625 5.069999694824 151 151 151
27.240255355835 11.748974800110 5.610000610352 131 131 131
27.240255355835 11.748974800110 5.500999450684 139 139 139
27.175373077393 11.688951492310 5.389999389648 134 134 134
27.175373077393 11.688951492310 5.283000946045 151 151 151
27.175373077393 11.688951492310 5.173999786377 120 120 120
27.362731933594 11.681660652161 4.851999282837 19 19 19
27.362731933594 11.681660652161 4.742000579834 48 48 48
27.362731933594 11.681660652161 4.632999420166 21 21 21
27.187522888184 12.001215934753 5.926000595093 133 133 133
27.187522888184 12.001215934753 5.815999984741 129 129 129
27.187522888184 12.001215934753 5.707000732422 126 126 126
27.125070571899 12.003645896912 5.597999572754 133 133 133
27.125070571899 12.003645896912 5.489000320435 144 144 144
27.125070571899 12.003645896912 5.379999160767 142 142 142
27.125070571899 12.003645896912 5.273000717163 150 150 150
27.125070571899 12.003645896912 5.166000366211 163 163 163
27.125070571899 12.003645896912 5.058000564575 155 155 155
27.062616348267 12.006075859070 4.951000213623 166 166 166
27.065046310425 12.068528175354 4.844999313354 181 181 181
27.065046310425 12.068528175354 4.739000320435 204 204 204
27.065046310425 12.068528175354 4.634000778198 227 227 227
27.065046310425 12.068528175354 4.527999877930 244 244 244
27.065046310425 12.068528175354 4.422000885010 255 255 255
27.065046310425 12.068528175354 4.315999984741 201 201 201
27.065046310425 12.068528175354 4.209999084473 235 235 235
27.065046310425 12.068528175354 4.106000900269 217 217 217
27.065046310425 12.068528175354 3.999000549316 203 203 203
27.065046310425 12.068528175354 3.892999649048 199 199 199
27.065046310425 12.068528175354 3.787000656128 192 192 192
27.002593994141 12.070958137512 3.680999755859 187 187 187
27.065046310425 12.068528175354 3.572999954224 193 193 193
27.002593994141 12.070958137512 3.465999603271 177 177 177
27.002593994141 12.070958137512 3.360000610352 171 171 171
27.002593994141 12.070958137512 3.250999450684 158 158 158
27.002593994141 12.070958137512 3.145999908447 133 133 133
27.002593994141 12.070958137512 3.038000106812 118 118 118
27.002593994141 12.070958137512 2.930000305176 108 108 108
27.002593994141 12.070958137512 2.820999145508 95 95 95
27.127500534058 12.066098213196 5.599000930786 152 152 152
27.127500534058 12.066098213196 5.490999221802 154 154 154
27.127500534058 12.066098213196 5.382999420166 143 143 143
27.189952850342 12.063668251038 5.275999069214 146 146 146
27.312427520752 11.996356010437 4.955999374390 13 13 13
27.312427520752 11.996356010437 4.847000122070 80 80 80
27.249975204468 11.998785972595 4.738000869751 117 117 117
27.249975204468 11.998785972595 4.628999710083 110 110 110
27.312427520752 11.996356010437 4.518999099731 28 28 28
27.249975204468 11.998785972595 4.410999298096 88 88 88
27.312427520752 11.996356010437 4.299999237061 17 17 17
27.127500534058 12.066098213196 3.000000000000 6 6 6
27.129930496216 12.128550529480 2.892999649048 28 28 28
27.129930496216 12.128550529480 2.784999847412 46 46 46
27.139650344849 12.378361701965 5.808000564575 54 54 54
27.139650344849 12.378361701965 5.702999114990 153 153 153
27.139650344849 12.378361701965 5.594999313354 154 154 154
27.139650344849 12.378361701965 5.270999908447 142 142 142
27.199672698975 12.313479423523 5.165000915527 147 147 147
27.322147369385 12.246166229248 4.954000473022 18 18 18
27.322147369385 12.246166229248 4.844999313354 52 52 52
27.259695053101 12.248596191406 4.736000061035 46 46 46
27.259695053101 12.248596191406 4.627000808716 22 22 22
27.144510269165 12.503267288208 5.808000564575 82 82 82
27.144510269165 12.503267288208 5.697999954224 142 142 142
27.206962585449 12.500837326050 5.270000457764 40 40 40
27.144510269165 12.503267288208 5.162000656128 149 149 149
27.144510269165 12.503267288208 5.055000305176 97 97 97
27.288127899170 11.371828079224 5.722999572754 167 167 167
27.288127899170 11.371828079224 5.627000808716 229 229 229
27.292987823486 11.496733665466 5.717000961304 221 221 221
27.292987823486 11.496733665466 5.621999740601 230 230 230
27.292987823486 11.496733665466 5.525999069214 227 227 227
27.230535507202 11.499163627625 5.239999771118 186 186 186
27.292987823486 11.496733665466 5.146999359131 241 241 241
27.230535507202 11.499163627625 5.052000045776 241 241 241
27.237825393677 11.686521530151 5.618000030518 226 226 226
27.237825393677 11.686521530151 5.521999359131 231 231 231
27.237825393677 11.686521530151 5.427000045776 214 214 214
27.237825393677 11.686521530151 5.330999374390 225 225 225
27.237825393677 11.686521530151 5.236999511719 236 236 236
27.237825393677 11.686521530151 5.143999099731 240 240 240
27.362731933594 11.681660652161 4.867000579834 66 66 66
27.362731933594 11.681660652161 4.773000717163 76 76 76
27.362731933594 11.681660652161 4.677000045776 73 73 73
27.362731933594 11.681660652161 4.582000732422 40 40 40
27.057756423950 11.881170272827 5.971000671387 147 147 147
27.057756423950 11.881170272827 5.875000000000 142 142 142
27.057756423950 11.881170272827 5.781000137329 119 119 119
27.057756423950 11.881170272827 5.687000274658 108 108 108
27.057756423950 11.881170272827 5.594999313354 82 82 82
27.182662963867 11.876310348511 5.514999389648 200 200 200
27.182662963867 11.876310348511 5.422000885010 204 204 204
27.182662963867 11.876310348511 5.326999664307 215 215 215
27.182662963867 11.876310348511 5.233999252319 192 192 192
27.370021820068 11.869019508362 4.865999221802 130 130 130
27.307567596436 11.871450424194 4.770000457764 80 80 80
27.245115280151 11.873880386353 4.674999237061 125 125 125
27.307567596436 11.871450424194 4.580999374390 164 164 164
27.370021820068 11.869019508362 4.486999511719 71 71 71
27.370021820068 11.869019508362 4.392000198364 129 129 129
27.370021820068 11.869019508362 4.297000885010 9 9 9
27.189952850342 12.063668251038 5.606000900269 178 178 178
27.189952850342 12.063668251038 5.513000488281 236 236 236
27.189952850342 12.063668251038 5.419000625610 235 235 235
27.189952850342 12.063668251038 5.325000762939 232 232 232
27.252405166626 12.061238288879 5.232000350952 163 163 163
27.312427520752 11.996356010437 4.955999374390 16 16 16
27.312427520752 11.996356010437 4.861999511719 122 122 122
27.252405166626 12.061238288879 4.764999389648 174 174 174
27.187522888184 12.001215934753 4.672000885010 217 217 217
27.187522888184 12.001215934753 4.579000473022 215 215 215
27.125070571899 12.003645896912 4.486999511719 240 240 240
27.187522888184 12.001215934753 4.393999099731 255 255 255
27.125070571899 12.003645896912 4.302999496460 218 218 218
27.125070571899 12.003645896912 4.209999084473 200 200 200
27.125070571899 12.003645896912 4.118000030518 196 196 196
27.125070571899 12.003645896912 4.027000427246 188 188 188
27.065046310425 12.068528175354 3.937000274658 169 169 169
27.065046310425 12.068528175354 3.847000122070 163 163 163
27.065046310425 12.068528175354 3.756000518799 174 174 174
27.065046310425 12.068528175354 3.663999557495 181 181 181
27.065046310425 12.068528175354 3.572999954224 190 190 190
27.065046310425 12.068528175354 3.481000900269 190 190 190
27.002593994141 12.070958137512 3.388000488281 189 189 189
27.002593994141 12.070958137512 3.295999526978 189 189 189
27.065046310425 12.068528175354 3.200000762939 185 185 185
27.065046310425 12.068528175354 3.107000350952 185 185 185
27.002593994141 12.070958137512 3.013999938965 186 186 186
27.065046310425 12.068528175354 2.917999267578 177 177 177
27.065046310425 12.068528175354 2.822999954224 164 164 164
27.197242736816 12.251026153564 5.697999954224 255 255 255
27.197242736816 12.251026153564 5.601999282837 229 229 229
27.197242736816 12.251026153564 5.509000778198 234 234 234
27.197242736816 12.251026153564 5.322999954224 236 236 236
27.197242736816 12.251026153564 5.229000091553 237 237 237
27.197242736816 12.251026153564 5.135000228882 125 125 125
27.322147369385 12.246166229248 4.861000061035 75 75 75
27.322147369385 12.246166229248 4.766000747681 82 82 82
27.322147369385 12.246166229248 4.672000885010 73 73 73
27.257265090942 12.186143875122 4.577999114990 75 75 75
27.257265090942 12.186143875122 4.483999252319 89 89 89
27.204532623291 12.438385009766 5.785999298096 228 228 228
27.204532623291 12.438385009766 5.691999435425 227 227 227
27.204532623291 12.438385009766 5.597999572754 184 184 184
27.204532623291 12.438385009766 5.318000793457 24 24 24
27.204532623291 12.438385009766 5.225000381470 237 237 237
27.204532623291 12.438385009766 5.131999969482 238 238 238
27.146940231323 12.565720558167 5.218000411987 127 127 127
27.146940231323 12.565720558167 5.125999450684 63 63 63
27.290557861328 11.434280395508 5.023000717163 172 172 172
27.290557861328 11.434280395508 5.131000518799 200 200 200
27.290557861328 11.434280395508 5.566999435425 134 134 134
27.290557861328 11.434280395508 5.677999496460 207 207 207
27.353012084961 11.431849479675 5.788000106812 179 179 179
27.422754287720 11.616778373718 4.691999435425 65 65 65
27.362731933594 11.681660652161 4.802000045776 62 62 62
27.295417785645 11.559185981750 5.128000259399 195 195 195
27.295417785645 11.559185981750 5.236999511719 195 195 195
27.232965469360 11.561615943909 5.344999313354 1 1 1
27.297847747803 11.621639251709 5.565000534058 199 199 199
27.297847747803 11.621639251709 5.673999786377 199 199 199
27.370021820068 11.869019508362 4.361000061035 13 13 13
27.370021820068 11.869019508362 4.471000671387 93 93 93
27.370021820068 11.869019508362 4.580999374390 60 60 60
27.305137634277 11.808997154236 4.690999984741 64 64 64
27.305137634277 11.808997154236 4.799999237061 100 100 100
27.370021820068 11.869019508362 4.909000396729 58 58 58
27.240255355835 11.748974800110 5.232999801636 196 196 196
27.240255355835 11.748974800110 5.342000961304 196 196 196
27.305137634277 11.808997154236 5.451999664307 194 194 194
27.305137634277 11.808997154236 5.559999465942 201 201 201
27.374881744385 11.993926048279 4.361000061035 109 109 109
27.374881744385 11.993926048279 4.471000671387 52 52 52
27.182662963867 11.876310348511 4.584999084473 139 139 139
27.247545242310 11.936332702637 4.691999435425 159 159 159
27.247545242310 11.936332702637 4.798999786377 179 179 179
27.247545242310 11.936332702637 4.906999588013 221 221 221
27.247545242310 11.936332702637 5.013999938965 203 203 203
27.247545242310 11.936332702637 5.121999740601 150 150 150
27.185092926025 11.938762664795 5.229000091553 155 155 155
27.185092926025 11.938762664795 5.336000442505 162 162 162
27.182662963867 11.876310348511 5.443000793457 151 151 151
27.120210647583 11.878740310669 5.548000335693 149 149 149
27.120210647583 11.878740310669 5.653999328613 143 143 143
27.120210647583 11.878740310669 5.759000778198 144 144 144
27.120210647583 11.878740310669 5.867000579834 180 180 180
27.120210647583 11.878740310669 5.974000930786 193 193 193
27.125070571899 12.003645896912 2.851999282837 133 133 133
27.125070571899 12.003645896912 2.968999862671 131 131 131
27.125070571899 12.003645896912 3.080999374390 138 138 138
27.125070571899 12.003645896912 3.193000793457 130 130 130
27.060186386108 11.943622589111 3.308000564575 126 126 126
27.125070571899 12.003645896912 3.413999557495 151 151 151
27.125070571899 12.003645896912 3.524000167847 180 180 180
27.125070571899 12.003645896912 3.631000518799 174 174 174
27.062616348267 12.006075859070 3.738000869751 173 173 173
27.125070571899 12.003645896912 3.844999313354 183 183 183
27.062616348267 12.006075859070 3.951999664307 183 183 183
27.062616348267 12.006075859070 4.058000564575 187 187 187
27.062616348267 12.006075859070 4.165000915527 184 184 184
27.062616348267 12.006075859070 4.270999908447 190 190 190
27.062616348267 12.006075859070 4.377000808716 138 138 138
27.062616348267 12.006075859070 4.482000350952 120 120 120
27.125070571899 12.003645896912 4.586999893188 121 121 121
27.125070571899 12.003645896912 4.691999435425 132 132 132
27.125070571899 12.003645896912 4.798000335693 87 87 87
27.189952850342 12.063668251038 4.905000686646 71 71 71
27.189952850342 12.063668251038 5.226999282837 95 95 95
27.189952850342 12.063668251038 5.336000442505 196 196 196
27.189952850342 12.063668251038 5.443000793457 189 189 189
27.189952850342 12.063668251038 5.551000595093 200 200 200
27.189952850342 12.063668251038 5.659000396729 118 118 118
27.324577331543 12.308619499207 4.687000274658 60 60 60
27.324577331543 12.308619499207 4.795999526978 62 62 62
27.324577331543 12.308619499207 4.905000686646 4 4 4
27.197242736816 12.251026153564 5.226999282837 196 196 196
27.197242736816 12.251026153564 5.333999633789 200 200 200
27.197242736816 12.251026153564 5.548999786377 189 189 189
27.197242736816 12.251026153564 5.656999588013 197 197 197
27.197242736816 12.251026153564 5.766000747681 149 149 149
27.204532623291 12.438385009766 5.117000579834 193 193 193
27.204532623291 12.438385009766 5.224000930786 198 198 198
27.204532623291 12.438385009766 5.653999328613 180 180 180
27.204532623291 12.438385009766 5.760999679565 198 198 198
27.204532623291 12.438385009766 5.870000839233 154 154 154
27.146940231323 12.565720558167 5.221000671387 109 109 109
27.292987823486 11.496733665466 5.725000381470 137 137 137
27.290557861328 11.434280395508 5.615999221802 179 179 179
27.230535507202 11.499163627625 5.176000595093 118 118 118
27.230535507202 11.499163627625 5.068000793457 148 148 148
27.230535507202 11.499163627625 4.958999633789 43 43 43
27.232965469360 11.561615943909 5.718999862671 64 64 64
27.232965469360 11.561615943909 5.607000350952 130 130 130
27.235395431519 11.624069213867 5.496999740601 117 117 117
27.235395431519 11.624069213867 5.278999328613 137 137 137
27.232965469360 11.561615943909 5.170999526978 147 147 147
27.235395431519 11.624069213867 5.062000274658 101 101 101
27.240255355835 11.748974800110 5.600999832153 117 117 117
27.240255355835 11.748974800110 5.492000579834 135 135 135
27.240255355835 11.748974800110 5.381999969482 152 152 152
27.240255355835 11.748974800110 5.274000167847 154 154 154
27.240255355835 11.748974800110 5.166000366211 77 77 77
27.362731933594 11.681660652161 4.843000411987 30 30 30
27.362731933594 11.681660652161 4.732999801636 39 39 39
27.362731933594 11.681660652161 4.622999191284 15 15 15
27.187522888184 12.001215934753 5.916999816895 128 128 128
27.125070571899 12.003645896912 5.806999206543 128 128 128
27.125070571899 12.003645896912 5.697999954224 131 131 131
27.125070571899 12.003645896912 5.587999343872 135 135 135
27.125070571899 12.003645896912 5.479000091553 147 147 147
27.125070571899 12.003645896912 5.371999740601 158 158 158
27.125070571899 12.003645896912 5.263000488281 150 150 150
27.062616348267 12.006075859070 5.156999588013 150 150 150
27.062616348267 12.006075859070 5.049999237061 168 168 168
27.065046310425 12.068528175354 4.943000793457 178 178 178
27.065046310425 12.068528175354 4.836999893188 199 199 199
27.065046310425 12.068528175354 4.731000900269 215 215 215
27.065046310425 12.068528175354 4.625000000000 230 230 230
27.065046310425 12.068528175354 4.520000457764 242 242 242
27.065046310425 12.068528175354 4.413000106812 255 255 255
27.065046310425 12.068528175354 4.308000564575 205 205 205
27.065046310425 12.068528175354 4.201999664307 232 232 232
27.065046310425 12.068528175354 4.096000671387 220 220 220
27.002593994141 12.070958137512 3.990999221802 214 214 214
27.002593994141 12.070958137512 3.884000778198 206 206 206
27.002593994141 12.070958137512 3.778999328613 201 201 201
27.002593994141 12.070958137512 3.672000885010 189 189 189
27.002593994141 12.070958137512 3.566999435425 184 184 184
27.002593994141 12.070958137512 3.458000183105 168 168 168
27.002593994141 12.070958137512 3.350000381470 156 156 156
27.002593994141 12.070958137512 3.243000030518 133 133 133
27.002593994141 12.070958137512 3.135000228882 110 110 110
27.002593994141 12.070958137512 3.028999328613 96 96 96
27.002593994141 12.070958137512 2.920000076294 83 83 83
27.002593994141 12.070958137512 2.809999465942 81 81 81
27.189952850342 12.063668251038 5.592000961304 155 155 155
27.189952850342 12.063668251038 5.483999252319 152 152 152
27.189952850342 12.063668251038 5.375999450684 146 146 146
27.189952850342 12.063668251038 5.267999649048 137 137 137
27.312427520752 11.996356010437 4.948999404907 13 13 13
27.312427520752 11.996356010437 4.840000152588 28 28 28
27.189952850342 12.063668251038 4.729999542236 77 77 77
27.189952850342 12.063668251038 4.621999740601 94 94 94
27.312427520752 11.996356010437 4.510999679565 25 25 25
27.312427520752 11.996356010437 4.402000427246 39 39 39
27.312427520752 11.996356010437 4.291999816895 25 25 25
27.127500534058 12.066098213196 3.652000427246 25 25 25
27.129930496216 12.128550529480 3.544000625610 58 58 58
27.129930496216 12.128550529480 3.434999465942 78 78 78
27.127500534058 12.066098213196 3.323999404907 98 98 98
27.129930496216 12.128550529480 3.214000701904 93 93 93
27.129930496216 12.128550529480 3.107000350952 99 99 99
27.129930496216 12.128550529480 2.995000839233 106 106 106
27.129930496216 12.128550529480 2.884000778198 104 104 104
27.129930496216 12.128550529480 2.774999618530 117 117 117
27.134790420532 12.253456115723 5.698999404907 153 153 153
27.134790420532 12.253456115723 5.590000152588 153 153 153
27.134790420532 12.253456115723 5.485000610352 11 11 11
27.134790420532 12.253456115723 5.375999450684 61 61 61
27.134790420532 12.253456115723 5.268999099731 140 140 140
27.134790420532 12.253456115723 5.159999847412 124 124 124
27.319717407227 12.183713912964 4.950000762939 18 18 18
27.319717407227 12.183713912964 4.840999603271 37 37 37
27.257265090942 12.186143875122 4.731000900269 52 52 52
27.257265090942 12.186143875122 4.621999740601 85 85 85
27.257265090942 12.186143875122 4.403999328613 41 41 41
27.206962585449 12.500837326050 5.805000305176 153 153 153
27.142080307007 12.440814971924 5.697000503540 149 149 149
27.142080307007 12.440814971924 5.267999649048 118 118 118
27.142080307007 12.440814971924 5.159999847412 142 142 142
27.142080307007 12.440814971924 5.052999496460 77 77 77
27.327007293701 12.371071815491 4.840999603271 25 25 25
27.329437255859 12.433525085449 4.732000350952 45 45 45
27.225675582886 11.374258041382 5.135000228882 89 89 89
27.353012084961 11.431849479675 5.684000015259 195 195 195
27.292987823486 11.496733665466 5.021999359131 194 194 194
27.292987823486 11.496733665466 5.129999160767 194 194 194
27.292987823486 11.496733665466 5.239000320435 119 119 119
27.292987823486 11.496733665466 5.568000793457 181 181 181
27.292987823486 11.496733665466 5.677000045776 198 198 198
27.292987823486 11.496733665466 5.784999847412 99 99 99
27.365161895752 11.744114875793 4.690999984741 40 40 40
27.362731933594 11.681660652161 4.801000595093 48 48 48
27.362731933594 11.681660652161 4.910999298096 7 7 7
27.235395431519 11.624069213867 5.127000808716 195 195 195
27.235395431519 11.624069213867 5.235000610352 192 192 192
27.235395431519 11.624069213867 5.343999862671 70 70 70
27.235395431519 11.624069213867 5.452999114990 41 41 41
27.235395431519 11.624069213867 5.562000274658 202 202 202
27.235395431519 11.624069213867 5.670999526978 194 194 194
27.370021820068 11.869019508362 4.468999862671 81 81 81
27.370021820068 11.869019508362 4.577999114990 51 51 51
27.370021820068 11.869019508362 4.688999176025 54 54 54
27.305137634277 11.808997154236 4.798000335693 94 94 94
27.370021820068 11.869019508362 4.906999588013 52 52 52
27.240255355835 11.748974800110 5.231000900269 198 198 198
27.240255355835 11.748974800110 5.339000701904 198 198 198
27.242685317993 11.811427116394 5.448999404907 197 197 197
27.242685317993 11.811427116394 5.556999206543 200 200 200
27.312427520752 11.996356010437 4.358999252319 99 99 99
27.374881744385 11.993926048279 4.467000961304 34 34 34
27.185092926025 11.938762664795 4.582000732422 119 119 119
27.185092926025 11.938762664795 4.688999176025 85 85 85
27.247545242310 11.936332702637 4.795999526978 110 110 110
27.247545242310 11.936332702637 4.905000686646 132 132 132
27.185092926025 11.938762664795 5.011999130249 154 154 154
27.185092926025 11.938762664795 5.120000839233 152 152 152
27.185092926025 11.938762664795 5.228000640869 158 158 158
27.185092926025 11.938762664795 5.336000442505 201 201 201
27.185092926025 11.938762664795 5.443000793457 183 183 183
27.185092926025 11.938762664795 5.551000595093 153 153 153
27.120210647583 11.878740310669 5.656000137329 139 139 139
27.120210647583 11.878740310669 5.763000488281 137 137 137
27.120210647583 11.878740310669 5.868000030518 135 135 135
27.122640609741 11.941192626953 5.974000930786 136 136 136
27.187522888184 12.001215934753 2.834999084473 52 52 52
27.187522888184 12.001215934753 2.951999664307 104 104 104
27.187522888184 12.001215934753 3.063999176025 111 111 111
27.187522888184 12.001215934753 3.174999237061 109 109 109
27.187522888184 12.001215934753 3.288000106812 106 106 106
27.125070571899 12.003645896912 3.399999618530 123 123 123
27.125070571899 12.003645896912 3.510999679565 132 132 132
27.125070571899 12.003645896912 3.620000839233 137 137 137
27.125070571899 12.003645896912 3.731000900269 131 131 131
27.060186386108 11.943622589111 3.840999603271 128 128 128
27.060186386108 11.943622589111 3.948999404907 149 149 149
27.125070571899 12.003645896912 4.055000305176 176 176 176
27.062616348267 12.006075859070 4.162000656128 196 196 196
27.062616348267 12.006075859070 4.268999099731 202 202 202
27.062616348267 12.006075859070 4.375000000000 201 201 201
27.062616348267 12.006075859070 4.479999542236 203 203 203
27.062616348267 12.006075859070 4.586000442505 210 210 210
27.062616348267 12.006075859070 4.691999435425 218 218 218
27.062616348267 12.006075859070 4.797000885010 222 222 222
27.062616348267 12.006075859070 4.902999877930 230 230 230
27.062616348267 12.006075859070 5.009000778198 163 163 163
27.062616348267 12.006075859070 5.114000320435 96 96 96
27.062616348267 12.006075859070 5.219999313354 78 78 78
27.125070571899 12.003645896912 5.332000732422 163 163 163
27.189952850342 12.063668251038 5.440999984741 172 172 172
27.189952850342 12.063668251038 5.549999237061 179 179 179
27.065046310425 12.068528175354 2.764999389648 131 131 131
27.002593994141 12.070958137512 2.879999160767 89 89 89
27.002593994141 12.070958137512 2.989000320435 73 73 73
