22.450448989868 7.730268478394 6.438000679016 156 156 156
22.443664550781 7.668138504028 6.438000679016 143 143 143
22.438577651978 7.621540069580 6.418999671936 150 150 150
22.436882019043 7.606006622314 6.373999595642 157 157 157
22.431795120239 7.559408187866 6.353999137878 159 159 159
22.423315048218 7.481744766235 6.374999046326 173 173 173
22.416530609131 7.419614791870 6.370999336243 162 162 162
22.414836883545 7.404081344604 6.322999000549 157 157 157
22.409748077393 7.357482910156 6.299000740051 167 167 167
22.471878051758 7.350698471069 6.227999687195 162 162 162
22.466791152954 7.304101943970 6.213000297546 160 160 160
22.463399887085 7.273035049438 6.183999061584 178 178 178
22.458312988281 7.226438522339 6.155999183655 182 182 182
22.456615447998 7.210905075073 6.110999107361 158 158 158
22.454919815063 7.195371627808 6.046000480652 155 155 155
22.456615447998 7.210905075073 5.973999977112 157 157 157
22.456615447998 7.210905075073 5.902998924255 163 163 163
22.456615447998 7.210905075073 5.842999458313 166 166 166
22.456615447998 7.210905075073 5.777998924255 173 173 173
22.456615447998 7.210905075073 5.713000297546 169 169 169
22.456615447998 7.210905075073 5.654999732971 170 170 170
22.456615447998 7.210905075073 5.595999717712 174 174 174
22.456615447998 7.210905075073 5.543000221252 177 177 177
22.456615447998 7.210905075073 5.484000205994 176 176 176
22.456615447998 7.210905075073 5.426999092102 177 177 177
22.458312988281 7.226438522339 5.372000694275 177 177 177
22.458312988281 7.226438522339 5.315999031067 174 174 174
22.456615447998 7.210905075073 5.272999763489 177 177 177
22.458312988281 7.226438522339 5.217000007629 164 164 164
22.458312988281 7.226438522339 5.162999153137 166 166 166
22.458312988281 7.226438522339 5.110999107361 173 173 173
22.458312988281 7.226438522339 5.061999320984 174 174 174
22.458312988281 7.226438522339 5.015000343323 178 178 178
22.458312988281 7.226438522339 4.970000267029 179 179 179
22.458312988281 7.226438522339 4.925000190735 180 180 180
22.458312988281 7.226438522339 4.876999855042 170 170 170
22.460006713867 7.241970062256 4.831000328064 178 178 178
22.458312988281 7.226438522339 4.787999153137 180 180 180
22.460006713867 7.241970062256 4.741000175476 169 169 169
22.458312988281 7.226438522339 4.703999519348 166 166 166
22.458312988281 7.226438522339 4.661999702454 166 166 166
22.458312988281 7.226438522339 4.619999885559 160 160 160
22.460006713867 7.241970062256 4.572999000549 170 170 170
22.458312988281 7.226438522339 4.537999153137 172 172 172
22.458312988281 7.226438522339 4.497000694275 169 169 169
22.460006713867 7.241970062256 4.456000328064 159 159 159
22.460006713867 7.241970062256 4.418000221252 159 159 159
22.460006713867 7.241970062256 4.377999305725 165 165 165
22.460006713867 7.241970062256 4.336998939514 163 163 163
22.460006713867 7.241970062256 4.300000190735 156 156 156
22.458312988281 7.226438522339 4.265999794006 163 163 163
22.460006713867 7.241970062256 4.227999687195 161 161 161
22.460006713867 7.241970062256 4.190999031067 149 149 149
22.460006713867 7.241970062256 4.152998924255 146 146 146
22.460006713867 7.241970062256 4.116999626160 143 143 143
22.460006713867 7.241970062256 4.078999519348 136 136 136
22.460006713867 7.241970062256 4.046999931335 122 122 122
22.460006713867 7.241970062256 4.008999824524 117 117 117
22.460006713867 7.241970062256 3.973999977112 101 101 101
22.460006713867 7.241970062256 3.940999031067 76 76 76
22.460006713867 7.241970062256 3.907999992371 53 53 53
22.491613388062 6.955598831177 2.366000175476 59 59 59
22.515354156494 7.173057556152 2.351000785828 109 109 109
22.488220214844 6.924533843994 1.925999641418 123 123 123
22.553743362427 6.948814392090 1.362999916077 166 166 166
22.501789093018 7.048795700073 1.373000144958 175 175 175
22.508571624756 7.110925674438 1.371000289917 174 174 174
22.517051696777 7.188589096069 1.369999885559 173 173 173
22.422391891479 9.776653289795 7.911999702454 127 127 127
22.451528549194 7.164306640625 7.817999839783 109 109 109
22.555133819580 9.840749740601 7.772000312805 160 160 160
22.550045013428 9.794151306152 6.658999443054 76 76 76
22.554359436035 7.530309677124 9.765999794006 164 164 164
22.552665710449 7.514776229858 9.560000419617 178 178 178
22.544185638428 7.437112808228 9.553999900818 181 181 181
22.537401199341 7.374982833862 9.501999855042 182 182 182
22.528923034668 7.297319412231 9.449000358582 157 157 157
22.523834228516 7.250720977783 9.390000343323 183 183 183
22.517051696777 7.188589096069 9.329998970032 173 173 173
22.579799652100 7.763299942017 7.901999473572 178 178 178
22.575790405273 7.150739669800 9.023999214172 128 128 128
22.574094772339 7.135208129883 8.870999336243 127 127 127
22.572399139404 7.119674682617 8.765000343323 119 119 119
22.575790405273 7.150739669800 8.535000801086 120 120 120
22.574094772339 7.135208129883 8.401999473572 155 155 155
22.567310333252 7.073076248169 8.376000404358 133 133 133
22.565614700317 7.057544708252 8.261000633240 145 145 145
22.558830261230 6.995412826538 8.244000434875 131 131 131
22.580879211426 7.197338104248 7.782000541687 147 147 147
22.560527801514 7.010946273804 7.949000358582 137 137 137
22.540176391602 6.824552536011 8.126000404358 147 147 147
22.548656463623 6.902217864990 7.755999565125 129 129 129
22.548656463623 6.902217864990 7.644000053406 166 166 166
22.558830261230 6.995412826538 7.095000267029 129 129 129
22.555438995361 6.964347839355 7.043999671936 67 67 67
22.674613952637 6.904182434082 7.647000312805 121 121 121
22.678005218506 6.935247421265 7.089999198914 36 36 36
22.444438934326 9.978578567505 7.853999137878 91 91 91
22.377220153809 9.938762664795 7.859000205994 167 167 167
22.442741394043 9.963045120239 7.853999137878 191 191 191
22.437654495239 9.916446685791 6.931000709534 153 153 153
22.434261322021 9.885381698608 6.907999992371 160 160 160
22.365348815918 9.830034255981 7.925999641418 132 132 132
22.361957550049 9.798967361450 6.657000541687 183 183 183
22.496393203735 9.878597259521 7.762000083923 107 107 107
22.491306304932 9.831998825073 7.741999626160 154 154 154
22.486217498779 9.785400390625 7.730000495911 149 149 149
22.487915039063 9.800933837891 6.664000511169 179 179 179
22.413911819458 9.698989868164 7.901999473572 117 117 117
22.479434967041 9.723270416260 6.744000434875 149 149 149
22.412216186523 9.683456420898 6.881999015808 171 171 171
22.407127380371 9.636857986450 6.890999794006 46 46 46
22.418998718262 9.745586395264 7.865000724792 146 146 146
22.617263793945 9.833965301514 7.929999351501 72 72 72
22.613872528076 9.802900314331 6.667000770569 177 177 177
22.526302337646 9.576692581177 7.599999427795 119 119 119
22.459083557129 9.536878585815 7.574000358582 149 149 149
22.452301025391 9.474746704102 7.772999763489 122 122 122
22.452301025391 9.474746704102 6.796999931335 143 143 143
22.447212219238 9.428148269653 6.897000312805 124 124 124
22.499168395996 9.328170776367 7.586998939514 129 129 129
22.495777130127 9.297105789185 7.435999870300 149 149 149
22.430253982544 9.272821426392 7.414999961853 95 95 95
22.490688323975 9.250507354736 6.815999031067 104 104 104
22.423469543457 9.210691452026 6.846999168396 129 129 129
22.468643188477 9.048582077026 7.862999916077 168 168 168
22.461858749390 8.986450195313 7.866999626160 123 123 123
22.472034454346 9.079647064209 7.296999931335 120 120 120
22.468643188477 9.048582077026 7.262000083923 150 150 150
22.463554382324 9.001983642578 7.241000175476 54 54 54
22.465251922607 9.017517089844 6.901000022888 143 143 143
22.463554382324 9.001983642578 6.810000419617 157 157 157
22.441509246826 8.800058364868 7.869999885559 174 174 174
22.436420440674 8.753459930420 7.863999366760 66 66 66
22.507030487061 8.824338912964 7.147999763489 138 138 138
22.439811706543 8.784526824951 7.110999107361 149 149 149
22.436420440674 8.753459930420 7.074999809265 55 55 55
22.438117980957 8.768993377686 6.910000801086 138 138 138
22.434724807739 8.737928390503 6.883000373840 82 82 82
22.483287811279 8.606882095337 7.887000083923 101 101 101
22.476505279541 8.544750213623 7.876000404358 160 160 160
22.481594085693 8.591348648071 6.961998939514 139 139 139
22.476505279541 8.544750213623 6.935000419617 155 155 155
22.473114013672 8.513685226440 6.905999183655 118 118 118
22.454458236694 8.342826843262 7.894999504089 161 161 161
22.447675704956 8.280694961548 7.883999824524 69 69 69
22.452762603760 8.327293395996 6.851000785828 127 127 127
22.449371337891 8.296228408813 6.815999031067 155 155 155
22.445980072021 8.265163421631 6.793999671936 85 85 85
22.026788711548 7.304988861084 2.154000282288 89 89 89
22.492847442627 8.118585586548 7.898999214172 145 145 145
22.425628662109 8.078769683838 7.880999565125 106 106 106
22.487758636475 8.071987152100 6.696000099182 131 131 131
22.484367370605 8.040922164917 6.675000190735 163 163 163
22.418846130371 8.016639709473 6.645998954773 92 92 92
22.078742980957 7.205007553101 2.518000602722 72 72 72
22.149353027344 7.275888442993 2.502999305725 100 100 100
22.152746200562 7.306953430176 2.473999977112 160 160 160
22.152746200562 7.306953430176 2.435999870300 157 157 157
22.152746200562 7.306953430176 2.397000312805 159 159 159
22.152746200562 7.306953430176 2.358000755310 159 159 159
22.152746200562 7.306953430176 2.318999290466 160 160 160
22.152746200562 7.306953430176 2.276999473572 155 155 155
22.152746200562 7.306953430176 2.235999107361 153 153 153
22.152746200562 7.306953430176 2.197999000549 149 149 149
22.154441833496 7.322486877441 2.158999443054 150 150 150
22.154441833496 7.322486877441 2.117999076843 138 138 138
22.152746200562 7.306953430176 2.070000648499 145 145 145
22.152746200562 7.306953430176 2.032999992371 145 145 145
22.154441833496 7.322486877441 1.992999076843 146 146 146
22.154441833496 7.322486877441 1.949000358582 155 155 155
22.152746200562 7.306953430176 1.904000282288 150 150 150
22.152746200562 7.306953430176 1.854999542236 132 132 132
22.152746200562 7.306953430176 1.809000015259 132 132 132
22.469104766846 7.901128768921 7.887000083923 146 146 146
22.462320327759 7.838996887207 7.874999046326 134 134 134
22.457233428955 7.792398452759 7.851000785828 168 168 168
22.386623382568 7.721517562866 7.881999015808 51 51 51
22.526147842407 7.847745895386 6.579998970032 90 90 90
22.460624694824 7.823465347290 6.546000480652 165 165 165
22.457233428955 7.792398452759 6.511000633240 153 153 153
22.453842163086 7.761333465576 6.477000236511 146 146 146
22.452144622803 7.745801925659 6.442000389099 142 142 142
22.049913406372 6.940952301025 2.525000572205 120 120 120
22.192829132080 7.098245620728 2.529000282288 66 66 66
22.204700469971 7.206974029541 2.518000602722 144 144 144
22.273616790771 7.262321472168 2.498999595642 146 146 146
22.280399322510 7.324453353882 2.478999137878 156 156 156
22.278703689575 7.308919906616 2.439000129700 157 157 157
22.278703689575 7.308919906616 2.398999214172 155 155 155
22.278703689575 7.308919906616 2.360999107361 153 153 153
22.278703689575 7.308919906616 2.318999290466 155 155 155
22.280399322510 7.324453353882 2.282000541687 146 146 146
22.278703689575 7.308919906616 2.241000175476 151 151 151
22.278703689575 7.308919906616 2.199000358582 148 148 148
22.280399322510 7.324453353882 2.161000251770 144 144 144
22.278703689575 7.308919906616 2.117999076843 143 143 143
22.278703689575 7.308919906616 2.074000358582 133 133 133
22.280399322510 7.324453353882 2.035000801086 135 135 135
22.278703689575 7.308919906616 1.991000175476 139 139 139
22.280399322510 7.324453353882 1.949000358582 145 145 145
22.278703689575 7.308919906616 1.902998924255 143 143 143
22.280399322510 7.324453353882 1.861999511719 147 147 147
22.278703689575 7.308919906616 1.812000274658 144 144 144
22.339138031006 7.286602020264 1.378999710083 130 130 130
22.514276504517 7.739017486572 7.876000404358 161 161 161
22.507492065430 7.676885604858 7.856999397278 178 178 178
22.438577651978 7.621540069580 7.859000205994 175 175 175
22.430099487305 7.543876647949 7.880000114441 144 144 144
21.965736389160 6.745811462402 8.032000541687 100 100 100
22.504100799561 7.645820617676 6.436999320984 82 82 82
22.500709533691 7.614755630493 6.390999794006 139 139 139
22.495620727539 7.568157196045 6.387999534607 149 149 149
22.492229461670 7.537092208862 6.343998908997 166 166 166
22.423315048218 7.481744766235 6.352999687195 57 57 57
22.337442398071 7.271070480347 3.911000251770 40 40 40
22.335746765137 7.255537033081 3.874999046326 64 64 64
22.337442398071 7.271070480347 3.835999488831 72 72 72
22.337442398071 7.271070480347 3.799000740051 83 83 83
22.399572372437 7.264287948608 3.762000083923 84 84 84
22.399572372437 7.264287948608 3.724999427795 97 97 97
22.399572372437 7.264287948608 3.688000679016 107 107 107
22.335746765137 7.255537033081 3.651999473572 110 110 110
22.399572372437 7.264287948608 3.613999366760 113 113 113
22.399572372437 7.264287948608 3.578000068665 121 121 121
22.399572372437 7.264287948608 3.540999412537 116 116 116
22.399572372437 7.264287948608 3.505000114441 131 131 131
22.399572372437 7.264287948608 3.468998908997 133 133 133
22.399572372437 7.264287948608 3.432000160217 140 140 140
22.399572372437 7.264287948608 3.395998954773 141 141 141
22.399572372437 7.264287948608 3.359000205994 141 141 141
22.399572372437 7.264287948608 3.322999000549 138 138 138
22.401268005371 7.279819488525 3.286999702454 133 133 133
22.399572372437 7.264287948608 3.249999046326 138 138 138
22.399572372437 7.264287948608 3.213000297546 146 146 146
22.399572372437 7.264287948608 3.176999092102 146 146 146
22.401268005371 7.279819488525 3.140999794006 147 147 147
22.399572372437 7.264287948608 3.105000495911 142 142 142
22.399572372437 7.264287948608 3.067999839783 157 157 157
22.399572372437 7.264287948608 3.030999183655 145 145 145
22.399572372437 7.264287948608 2.992999076843 147 147 147
22.399572372437 7.264287948608 2.956000328064 145 145 145
22.399572372437 7.264287948608 2.919999122620 144 144 144
22.399572372437 7.264287948608 2.883000373840 148 148 148
22.399572372437 7.264287948608 2.845999717712 145 145 145
22.399572372437 7.264287948608 2.808999061584 149 149 149
22.401268005371 7.279819488525 2.772999763489 140 140 140
22.401268005371 7.279819488525 2.734999656677 140 140 140
22.401268005371 7.279819488525 2.696999549866 145 145 145
22.401268005371 7.279819488525 2.658999443054 144 144 144
22.399572372437 7.264287948608 2.619000434875 138 138 138
22.401268005371 7.279819488525 2.582999229431 139 139 139
22.401268005371 7.279819488525 2.544999122620 139 139 139
22.401268005371 7.279819488525 2.506999015808 139 139 139
22.399572372437 7.264287948608 2.464999198914 141 141 141
22.401268005371 7.279819488525 2.425999641418 142 142 142
22.401268005371 7.279819488525 2.388998985291 145 145 145
22.401268005371 7.279819488525 2.349999427795 138 138 138
22.401268005371 7.279819488525 2.310999870300 138 138 138
22.402965545654 7.295352935791 2.272999763489 138 138 138
22.401268005371 7.279819488525 2.223999977112 142 142 142
22.401268005371 7.279819488525 2.186999320984 140 140 140
22.401268005371 7.279819488525 2.145998954773 141 141 141
22.401268005371 7.279819488525 2.105000495911 139 139 139
22.402965545654 7.295352935791 2.064999580383 141 141 141
22.402965545654 7.295352935791 2.022999763489 145 145 145
22.402965545654 7.295352935791 1.980999946594 143 143 143
22.402965545654 7.295352935791 1.935999870300 141 141 141
22.402965545654 7.295352935791 1.893000602722 142 142 142
22.401268005371 7.279819488525 1.843999862671 138 138 138
22.465095520020 7.288568496704 1.807000160217 129 129 129
22.465095520020 7.288568496704 1.757999420166 136 136 136
22.465095520020 7.288568496704 1.713000297546 136 136 136
22.465095520020 7.288568496704 1.670999526978 125 125 125
22.465095520020 7.288568496704 1.625000000000 136 136 136
22.465095520020 7.288568496704 1.574999809265 137 137 137
22.465095520020 7.288568496704 1.526999473572 131 131 131
22.465095520020 7.288568496704 1.479999542236 135 135 135
22.466791152954 7.304101943970 1.432000160217 130 130 130
22.466791152954 7.304101943970 1.381999969482 140 140 140
22.561143875122 7.592439651489 9.810000419617 76 76 76
22.559448242188 7.576908111572 9.623999595642 147 147 147
22.490533828735 7.521558761597 9.567000389099 174 174 174
22.482053756714 7.443895339966 9.563000679016 165 165 165
22.554359436035 7.530309677124 7.898999214172 117 117 117
22.483749389648 7.459428787231 7.925000190735 37 37 37
22.480358123779 7.428361892700 7.869000434875 129 129 129
22.476966857910 7.397296905518 7.803999900818 120 120 120
21.936906814575 6.481756210327 8.789999961853 20 20 20
22.091693878174 6.747777938843 8.026000022888 88 88 88
22.394485473633 7.217689514160 6.910000801086 61 61 61
22.391094207764 7.186624526978 6.865000724792 103 103 103
22.394485473633 7.217689514160 6.741999626160 61 61 61
22.396181106567 7.233222961426 6.661999702454 89 89 89
22.394485473633 7.217689514160 6.586998939514 95 95 95
22.394485473633 7.217689514160 6.512999534607 105 105 105
22.461704254150 7.257503509521 6.398999214172 153 153 153
22.470184326172 7.335166931152 6.255999565125 161 161 161
22.468486785889 7.319633483887 6.204998970032 166 166 166
22.463399887085 7.273035049438 6.183999061584 160 160 160
22.396181106567 7.233222961426 6.161000251770 160 160 160
22.396181106567 7.233222961426 6.098000526428 158 158 158
22.394485473633 7.217689514160 6.036000251770 145 145 145
22.394485473633 7.217689514160 5.973000526428 147 147 147
22.394485473633 7.217689514160 5.914000511169 153 153 153
22.456615447998 7.210905075073 5.851000785828 155 155 155
22.458312988281 7.226438522339 5.790999412537 153 153 153
22.458312988281 7.226438522339 5.724999427795 155 155 155
22.458312988281 7.226438522339 5.675999641418 157 157 157
22.458312988281 7.226438522339 5.610999107361 162 162 162
22.458312988281 7.226438522339 5.557000160217 163 163 163
22.458312988281 7.226438522339 5.501000404358 166 166 166
22.458312988281 7.226438522339 5.452000617981 168 168 168
22.458312988281 7.226438522339 5.394000053406 169 169 169
22.458312988281 7.226438522339 5.343998908997 165 165 165
22.458312988281 7.226438522339 5.293999671936 170 170 170
22.458312988281 7.226438522339 5.245999336243 158 158 158
22.458312988281 7.226438522339 5.190999031067 156 156 156
22.460006713867 7.241970062256 5.137000083923 161 161 161
22.460006713867 7.241970062256 5.088999748230 166 166 166
22.460006713867 7.241970062256 5.040999412537 169 169 169
22.460006713867 7.241970062256 4.994999885559 172 172 172
22.460006713867 7.241970062256 4.947999000549 171 171 171
22.460006713867 7.241970062256 4.904000282288 166 166 166
22.461704254150 7.257503509521 4.852999687195 172 172 172
22.460006713867 7.241970062256 4.810999870300 169 169 169
22.460006713867 7.241970062256 4.766999244690 165 165 165
22.460006713867 7.241970062256 4.724999427795 161 161 161
22.461704254150 7.257503509521 4.676999092102 154 154 154
22.460006713867 7.241970062256 4.640000343323 139 139 139
22.460006713867 7.241970062256 4.593998908997 149 149 149
22.460006713867 7.241970062256 4.553999900818 149 149 149
22.460006713867 7.241970062256 4.511000633240 139 139 139
22.460006713867 7.241970062256 4.467999458313 122 122 122
22.460006713867 7.241970062256 4.425999641418 136 136 136
22.461704254150 7.257503509521 4.383999824524 142 142 142
22.460006713867 7.241970062256 4.346999168396 137 137 137
22.460006713867 7.241970062256 4.307000160217 109 109 109
22.460006713867 7.241970062256 4.265999794006 102 102 102
22.460006713867 7.241970062256 4.227999687195 95 95 95
22.460006713867 7.241970062256 4.189999580383 88 88 88
22.458312988281 7.226438522339 4.151999473572 89 89 89
22.458312988281 7.226438522339 4.113999366760 82 82 82
22.458312988281 7.226438522339 4.075999259949 81 81 81
22.456615447998 7.210905075073 4.037999153137 81 81 81
22.456615447998 7.210905075073 4.001000404358 83 83 83
22.454919815063 7.195371627808 3.964999198914 94 94 94
22.453224182129 7.179840087891 3.929999351501 93 93 93
22.453224182129 7.179840087891 3.891999244690 92 92 92
22.451528549194 7.164306640625 3.855000495911 91 91 91
22.451528549194 7.164306640625 3.817000389099 92 92 92
22.451528549194 7.164306640625 3.776000022888 102 102 102
22.451528549194 7.164306640625 3.738999366760 97 97 97
22.446441650391 7.117708206177 3.704998970032 90 90 90
22.380918502808 7.093427658081 3.668999671936 85 85 85
22.375831604004 7.046829223633 3.633999824524 75 75 75
22.374134063721 7.031297683716 3.595999717712 75 75 75
22.372438430786 7.015764236450 3.557000160217 78 78 78
22.372438430786 7.015764236450 3.516999244690 80 80 80
22.372438430786 7.015764236450 3.477000236511 81 81 81
22.372438430786 7.015764236450 3.438000679016 97 97 97
22.372438430786 7.015764236450 3.397999763489 87 87 87
22.372438430786 7.015764236450 3.358000755310 89 89 89
22.372438430786 7.015764236450 3.317999839783 97 97 97
22.370742797852 7.000232696533 3.277998924255 102 102 102
22.453224182129 7.179840087891 3.245999336243 116 116 116
22.453224182129 7.179840087891 3.209000587463 126 126 126
22.453224182129 7.179840087891 3.171000480652 129 129 129
22.451528549194 7.164306640625 3.133000373840 107 107 107
22.370742797852 7.000232696533 3.077000617981 98 98 98
22.370742797852 7.000232696533 3.037999153137 94 94 94
22.370742797852 7.000232696533 2.997000694275 94 94 94
22.369047164917 6.984699249268 2.954998970032 97 97 97
22.369047164917 6.984699249268 2.914000511169 99 99 99
22.369047164917 6.984699249268 2.872000694275 106 106 106
22.369047164917 6.984699249268 2.831999778748 105 105 105
22.369047164917 6.984699249268 2.789000511169 112 112 112
22.369047164917 6.984699249268 2.748000144958 110 110 110
22.369047164917 6.984699249268 2.706999778748 111 111 111
22.369047164917 6.984699249268 2.664000511169 110 110 110
22.367351531982 6.969165802002 2.619999885559 117 117 117
22.369047164917 6.984699249268 2.581000328064 115 115 115
22.369047164917 6.984699249268 2.537999153137 111 111 111
22.367351531982 6.969165802002 2.491999626160 111 111 111
22.369047164917 6.984699249268 2.452000617981 115 115 115
22.367351531982 6.969165802002 2.405999183655 119 119 119
22.365653991699 6.953634262085 2.356999397278 121 121 121
22.443048477173 7.086643218994 2.359999656677 130 130 130
22.515354156494 7.173057556152 2.349999427795 122 122 122
22.365653991699 6.953634262085 2.227000236511 125 125 125
22.367351531982 6.969165802002 2.182999610901 123 123 123
22.367351531982 6.969165802002 2.137999534607 129 129 129
22.365653991699 6.953634262085 2.089999198914 134 134 134
22.444744110107 7.102176666260 2.105000495911 117 117 117
22.446441650391 7.117708206177 2.067999839783 112 112 112
22.446441650391 7.117708206177 2.022000312805 119 119 119
22.443048477173 7.086643218994 1.967999458313 112 112 112
22.448135375977 7.133241653442 1.945000648499 123 123 123
22.513660430908 7.157524108887 1.910000801086 124 124 124
22.367351531982 6.969165802002 1.762000083923 119 119 119
22.365653991699 6.953634262085 1.710000038147 120 120 120
22.367351531982 6.969165802002 1.661999702454 118 118 118
22.365653991699 6.953634262085 1.609000205994 121 121 121
22.367351531982 6.969165802002 1.562000274658 122 122 122
22.365653991699 6.953634262085 1.503999710083 125 125 125
22.367351531982 6.969165802002 1.456000328064 125 125 125
22.431179046631 6.977914810181 1.418000221252 162 162 162
22.436265945435 7.024513244629 1.399000167847 162 162 162
22.444744110107 7.102176666260 1.387000083923 166 166 166
22.513660430908 7.157524108887 1.378000259399 166 166 166
22.520442962646 7.219655990601 1.366999626160 167 167 167
22.614795684814 7.507991790771 9.842000007629 13 13 13
22.534009933472 7.343915939331 9.852999687195 89 89 89
22.535705566406 7.359449386597 9.623999595642 176 176 176
22.534009933472 7.343915939331 9.480999946594 147 147 147
22.527225494385 7.281785964966 9.411999702454 181 181 181
22.522138595581 7.235187530518 9.358000755310 181 181 181
22.456615447998 7.210905075073 9.261000633240 152 152 152
22.454919815063 7.195371627808 9.108000755310 151 151 151
22.454919815063 7.195371627808 8.949999809265 137 137 137
22.456615447998 7.210905075073 8.797999382019 160 160 160
22.518747329712 7.204122543335 8.655999183655 160 160 160
22.518747329712 7.204122543335 8.505999565125 164 164 164
22.518747329712 7.204122543335 8.374999046326 149 149 149
22.517051696777 7.188589096069 8.266999244690 136 136 136
22.518747329712 7.204122543335 8.141999244690 136 136 136
22.518747329712 7.204122543335 8.025000572205 137 137 137
22.520442962646 7.219655990601 7.883000373840 135 135 135
22.520442962646 7.219655990601 7.766999244690 148 148 148
22.517051696777 7.188589096069 7.699000358582 139 139 139
22.517051696777 7.188589096069 7.595000267029 129 129 129
22.518747329712 7.204122543335 7.484999656677 128 128 128
22.518747329712 7.204122543335 7.387999534607 117 117 117
22.518747329712 7.204122543335 7.293999671936 126 126 126
22.518747329712 7.204122543335 7.203000068665 141 141 141
22.517051696777 7.188589096069 7.124999046326 146 146 146
22.517051696777 7.188589096069 7.039000511169 138 138 138
22.517051696777 7.188589096069 6.949999809265 148 148 148
22.517051696777 7.188589096069 6.866999626160 154 154 154
22.515354156494 7.173057556152 6.808999061584 143 143 143
22.510267257690 7.126459121704 6.777998924255 133 133 133
22.508571624756 7.110925674438 6.720000267029 131 131 131
22.443048477173 7.086643218994 6.665999412537 126 126 126
22.439657211304 7.055578231812 6.634999275208 131 131 131
22.437961578369 7.040044784546 6.568999290466 134 134 134
22.436265945435 7.024513244629 6.518000602722 142 142 142
22.434570312500 7.008979797363 6.449000358582 148 148 148
22.505180358887 7.079860687256 6.307000160217 150 150 150
22.434570312500 7.008979797363 6.310999870300 147 147 147
22.434570312500 7.008979797363 6.245999336243 153 153 153
22.434570312500 7.008979797363 6.175999641418 155 155 155
22.434570312500 7.008979797363 6.106999397278 151 151 151
22.434570312500 7.008979797363 6.046000480652 147 147 147
22.434570312500 7.008979797363 5.985999107361 149 149 149
22.434570312500 7.008979797363 5.924000740051 142 142 142
22.434570312500 7.008979797363 5.858000755310 144 144 144
22.432872772217 6.993448257446 5.803000450134 143 143 143
22.508571624756 7.110925674438 5.657999992371 139 139 139
22.508571624756 7.110925674438 5.602999687195 150 150 150
22.505180358887 7.079860687256 5.560999870300 140 140 140
22.434570312500 7.008979797363 5.567000389099 145 145 145
22.434570312500 7.008979797363 5.511000633240 144 144 144
22.434570312500 7.008979797363 5.453999519348 139 139 139
22.434570312500 7.008979797363 5.402998924255 135 135 135
22.434570312500 7.008979797363 5.342999458313 131 131 131
22.434570312500 7.008979797363 5.290999412537 127 127 127
22.436265945435 7.024513244629 5.233000755310 128 128 128
22.434570312500 7.008979797363 5.182999610901 122 122 122
22.434570312500 7.008979797363 5.134999275208 129 129 129
22.434570312500 7.008979797363 5.085000038147 124 124 124
22.434570312500 7.008979797363 5.033999443054 118 118 118
22.434570312500 7.008979797363 4.983000755310 114 114 114
22.498395919800 7.017730712891 4.932000160217 112 112 112
22.498395919800 7.017730712891 4.883999824524 118 118 118
22.496700286865 7.002197265625 4.838999748230 114 114 114
22.498395919800 7.017730712891 4.790999412537 118 118 118
22.498395919800 7.017730712891 4.737999916077 110 110 110
22.498395919800 7.017730712891 4.696000099182 108 108 108
22.498395919800 7.017730712891 4.648999214172 104 104 104
22.498395919800 7.017730712891 4.602000236511 104 104 104
22.498395919800 7.017730712891 4.561999320984 106 106 106
22.496700286865 7.002197265625 4.518000602722 103 103 103
22.496700286865 7.002197265625 4.477000236511 95 95 95
22.498395919800 7.017730712891 4.425000190735 122 122 122
22.498395919800 7.017730712891 4.383000373840 145 145 145
22.498395919800 7.017730712891 4.339999198914 115 115 115
22.496700286865 7.002197265625 4.301999092102 95 95 95
22.495004653931 6.986665725708 4.262000083923 97 97 97
22.496700286865 7.002197265625 4.216000556946 91 91 91
22.496700286865 7.002197265625 4.175000190735 88 88 88
22.496700286865 7.002197265625 4.133999824524 82 82 82
22.496700286865 7.002197265625 4.091000556946 79 79 79
22.495004653931 6.986665725708 4.051999092102 69 69 69
22.495004653931 6.986665725708 4.008999824524 72 72 72
22.495004653931 6.986665725708 3.967999458313 76 76 76
22.495004653931 6.986665725708 3.928000450134 66 66 66
22.495004653931 6.986665725708 3.884999275208 65 65 65
22.493309020996 6.971132278442 3.845999717712 62 62 62
22.495004653931 6.986665725708 3.803999900818 57 57 57
22.493309020996 6.971132278442 3.763998985291 50 50 50
22.493309020996 6.971132278442 3.723999977112 47 47 47
22.493309020996 6.971132278442 3.682000160217 53 53 53
22.491613388062 6.955598831177 2.355999946594 94 94 94
22.488220214844 6.924533843994 1.932000160217 90 90 90
22.484828948975 6.893468856812 1.359999656677 160 160 160
22.557136535645 6.979881286621 1.361999511719 162 162 162
22.563919067383 7.042011260986 1.354999542236 166 166 166
22.577486038208 7.166273117065 10.263998985291 67 67 67
22.575790405273 7.150739669800 10.095999717712 114 114 114
22.574094772339 7.135208129883 9.953999519348 171 171 171
22.572399139404 7.119674682617 9.800000190735 150 150 150
22.570701599121 7.104141235352 9.634999275208 159 159 159
22.505180358887 7.079860687256 9.535000801086 150 150 150
22.569007873535 7.088609695435 9.345000267029 160 160 160
22.503482818604 7.064329147339 9.237999916077 156 156 156
22.503482818604 7.064329147339 9.092000007629 153 153 153
22.501789093018 7.048795700073 8.946000099182 152 152 152
22.563919067383 7.042011260986 8.800000190735 148 148 148
22.567310333252 7.073076248169 8.622000694275 135 135 135
22.565614700317 7.057544708252 8.505000114441 135 135 135
22.565614700317 7.057544708252 8.387000083923 129 129 129
22.565614700317 7.057544708252 8.268000602722 149 149 149
22.496700286865 7.002197265625 8.234000205994 136 136 136
22.493309020996 6.971132278442 8.162999153137 117 117 117
22.563919067383 7.042011260986 7.946000099182 116 116 116
22.484828948975 6.893468856812 8.046000480652 120 120 120
22.483133316040 6.877935409546 7.953999519348 58 58 58
22.560527801514 7.010946273804 7.650000572205 111 111 111
22.489917755127 6.940067291260 7.668000221252 158 158 158
22.488220214844 6.924533843994 7.575999259949 106 106 106
22.481437683105 6.862403869629 7.554999351501 91 91 91
22.560527801514 7.010946273804 7.086998939514 147 147 147
22.491613388062 6.955598831177 7.078999519348 84 84 84
22.541873931885 6.840085983276 9.671000480652 155 155 155
22.540176391602 6.824552536011 9.553000450134 150 150 150
22.466175079346 6.722608566284 9.581000328064 155 155 155
22.461086273193 6.676010131836 8.758999824524 95 95 95
22.461086273193 6.676010131836 8.634999275208 152 152 152
22.466175079346 6.722608566284 8.445000648499 95 95 95
22.540176391602 6.824552536011 8.162999153137 131 131 131
22.530002593994 6.731357574463 8.175999641418 129 129 129
22.535089492798 6.777956008911 8.001999855042 156 156 156
22.533393859863 6.762422561646 7.908999443054 164 164 164
22.587043762207 6.677976608276 9.822999000549 14 14 14
22.585350036621 6.662443161011 8.789999961853 40 40 40
22.580261230469 6.615846633911 8.726000785828 137 137 137
22.576869964600 6.584779739380 8.643000602722 147 147 147
22.506259918213 6.513898849487 8.631999015808 165 165 165
22.507953643799 6.529432296753 8.476000785828 57 57 57
22.655960083008 6.733322143555 8.058999061584 98 98 98
22.615568161011 9.818431854248 6.685999870300 43 43 43
22.491306304932 9.831998825073 7.755000114441 161 161 161
22.434261322021 9.885381698608 7.761000633240 129 129 129
22.437654495239 9.916446685791 7.824999809265 91 91 91
22.380611419678 9.969827651978 6.887999534607 86 86 86
22.384002685547 10.000892639160 6.897000312805 49 49 49
22.380611419678 9.969827651978 7.894000053406 153 153 153
22.413911819458 9.698989868164 6.738999366760 133 133 133
22.410520553589 9.667922973633 7.696999549866 114 114 114
22.358564376831 9.767902374268 6.838999748230 172 172 172
22.355173110962 9.736837387085 7.870999336243 136 136 136
22.360260009766 9.783435821533 7.845000267029 127 127 127
22.303218841553 9.836818695068 7.884999275208 68 68 68
22.448909759521 9.443681716919 6.770998954773 99 99 99
22.390169143677 9.481531143188 6.852000236511 109 109 109
22.393562316895 9.512596130371 6.891999244690 143 143 143
22.388473510742 9.465999603271 7.851000785828 178 178 178
22.393562316895 9.512596130371 7.856999397278 100 100 100
22.425167083740 9.226224899292 6.800000190735 121 121 121
22.426862716675 9.241756439209 6.890000343323 137 137 137
22.428558349609 9.257289886475 7.050000190735 127 127 127
22.421775817871 9.195158004761 7.845000267029 49 49 49
22.426862716675 9.241756439209 7.855000495911 173 173 173
22.369819641113 9.295139312744 7.848999977112 37 37 37
22.460163116455 8.970918655396 6.800999641418 96 96 96
22.461858749390 8.986450195313 6.856999397278 165 165 165
22.403120040894 9.024299621582 6.911999702454 155 155 155
22.460163116455 8.970918655396 7.213999748230 122 122 122
22.458467483521 8.955385208130 7.862000465393 75 75 75
22.401424407959 9.008766174316 7.863999366760 164 164 164
22.436420440674 8.753459930420 6.883000373840 120 120 120
22.436420440674 8.753459930420 6.968998908997 135 135 135
22.436420440674 8.753459930420 7.086998939514 85 85 85
22.431333541870 8.706863403320 7.867999076843 60 60 60
22.436420440674 8.753459930420 7.873999595642 170 170 170
22.469722747803 8.482620239258 6.897000312805 114 114 114
22.410982131958 8.520469665527 6.911000251770 132 132 132
22.471416473389 8.498153686523 7.877999305725 153 153 153
22.504718780518 8.227313995361 6.770998954773 57 57 57
22.445980072021 8.265163421631 6.793999671936 134 134 134
22.449371337891 8.296228408813 6.815999031067 86 86 86
22.444282531738 8.249629974365 7.866999626160 124 124 124
22.449371337891 8.296228408813 7.869999885559 105 105 105
22.480976104736 8.009857177734 6.645998954773 177 177 177
22.422237396240 8.047704696655 6.664999961853 181 181 181
22.475887298584 7.963258743286 7.872000694275 65 65 65
22.480976104736 8.009857177734 7.879000663757 147 147 147
22.457233428955 7.792398452759 6.454998970032 126 126 126
22.458929061890 7.807931900024 6.511000633240 169 169 169
22.460624694824 7.823465347290 6.546000480652 151 151 151
22.401885986328 7.861312866211 6.578999519348 87 87 87
22.505796432495 7.661354064941 7.881999015808 110 110 110
22.514276504517 7.739017486572 7.858000755310 173 173 173
22.457233428955 7.792398452759 7.856999397278 176 176 176
22.614795684814 7.507991790771 9.777998924255 30 30 30
22.493925094604 7.552623748779 6.327000617981 136 136 136
22.435186386108 7.590475082397 6.370999336243 161 161 161
22.436882019043 7.606006622314 6.411999702454 142 142 142
22.441970825195 7.652605056763 6.417000770569 148 148 148
22.379840850830 7.659387588501 6.483000755310 47 47 47
22.488838195801 7.506027221680 7.827000617981 127 127 127
22.492229461670 7.537092208862 7.865000724792 178 178 178
22.435186386108 7.590475082397 7.886000633240 168 168 168
22.379840850830 7.659387588501 7.894999504089 112 112 112
22.539096832275 7.390514373779 9.505000114441 146 146 146
22.482053756714 7.443895339966 9.549000740051 189 189 189
22.487142562866 7.490493774414 9.610999107361 172 172 172
22.488838195801 7.506027221680 9.782999992371 90 90 90
22.520442962646 7.219655990601 6.164999961853 108 108 108
22.523834228516 7.250720977783 6.196000099182 143 143 143
22.468486785889 7.319633483887 6.195000648499 128 128 128
22.471878051758 7.350698471069 6.220000267029 152 152 152
22.473575592041 7.366231918335 6.280999183655 124 124 124
22.681396484375 6.966314315796 7.071000099182 110 110 110
22.520442962646 7.219655990601 7.751999855042 155 155 155
22.465095520020 7.288568496704 7.762999534607 135 135 135
22.466791152954 7.304101943970 7.835999488831 167 167 167
22.517051696777 7.188589096069 8.161000251770 52 52 52
22.577486038208 7.166273117065 8.297999382019 78 78 78
22.517051696777 7.188589096069 8.397999763489 127 127 127
22.517051696777 7.188589096069 8.529999732971 122 122 122
22.517051696777 7.188589096069 8.665999412537 117 117 117
22.517051696777 7.188589096069 8.813000679016 95 95 95
22.515354156494 7.173057556152 8.974999427795 124 124 124
22.515354156494 7.173057556152 9.130999565125 127 127 127
22.515354156494 7.173057556152 9.293000221252 136 136 136
22.520442962646 7.219655990601 9.367999076843 184 184 184
22.463399887085 7.273035049438 9.415999412537 180 180 180
22.463399887085 7.273035049438 9.581000328064 183 183 183
22.513660430908 7.157524108887 10.037999153137 93 93 93
22.513660430908 7.157524108887 10.241999626160 64 64 64
22.404659271240 7.310886383057 1.420999526978 157 157 157
22.406356811523 7.326417922974 1.473999977112 148 148 148
22.406356811523 7.326417922974 1.522999763489 147 147 147
22.404659271240 7.310886383057 1.567999839783 148 148 148
22.404659271240 7.310886383057 1.614999771118 140 140 140
22.404659271240 7.310886383057 1.659999847412 125 125 125
22.404659271240 7.310886383057 1.708000183105 131 131 131
22.404659271240 7.310886383057 1.751999855042 132 132 132
22.404659271240 7.310886383057 1.793999671936 127 127 127
22.404659271240 7.310886383057 1.842999458313 123 123 123
22.404659271240 7.310886383057 1.883000373840 129 129 129
22.404659271240 7.310886383057 1.929999351501 132 132 132
22.404659271240 7.310886383057 1.970999717712 136 136 136
22.404659271240 7.310886383057 2.015000343323 133 133 133
22.404659271240 7.310886383057 2.060999870300 126 126 126
22.404659271240 7.310886383057 2.101000785828 125 125 125
22.404659271240 7.310886383057 2.141999244690 126 126 126
22.402965545654 7.295352935791 2.178000450134 126 126 126
22.402965545654 7.295352935791 2.221999168396 129 129 129
22.402965545654 7.295352935791 2.261000633240 131 131 131
22.402965545654 7.295352935791 2.299000740051 129 129 129
22.402965545654 7.295352935791 2.342999458313 126 126 126
22.402965545654 7.295352935791 2.380999565125 127 127 127
22.401268005371 7.279819488525 2.418000221252 126 126 126
22.402965545654 7.295352935791 2.461998939514 128 128 128
22.402965545654 7.295352935791 2.498999595642 129 129 129
22.402965545654 7.295352935791 2.536999702454 132 132 132
22.401268005371 7.279819488525 2.572999000549 137 137 137
22.401268005371 7.279819488525 2.613999366760 130 130 130
22.401268005371 7.279819488525 2.651000022888 138 138 138
22.401268005371 7.279819488525 2.689999580383 138 138 138
22.401268005371 7.279819488525 2.727999687195 132 132 132
22.401268005371 7.279819488525 2.765999794006 141 141 141
22.401268005371 7.279819488525 2.803000450134 144 144 144
22.401268005371 7.279819488525 2.839999198914 143 143 143
22.401268005371 7.279819488525 2.876999855042 146 146 146
22.401268005371 7.279819488525 2.914000511169 138 138 138
22.399572372437 7.264287948608 2.949999809265 142 142 142
22.401268005371 7.279819488525 2.987999916077 139 139 139
22.401268005371 7.279819488525 3.025000572205 151 151 151
22.401268005371 7.279819488525 3.061999320984 143 143 143
22.401268005371 7.279819488525 3.098999977112 131 131 131
22.401268005371 7.279819488525 3.134999275208 139 139 139
22.401268005371 7.279819488525 3.171999931335 141 141 141
22.401268005371 7.279819488525 3.207999229431 138 138 138
22.401268005371 7.279819488525 3.244999885559 125 125 125
22.401268005371 7.279819488525 3.282000541687 126 126 126
22.399572372437 7.264287948608 3.317999839783 128 128 128
22.399572372437 7.264287948608 3.355000495911 133 133 133
22.399572372437 7.264287948608 3.390999794006 136 136 136
22.399572372437 7.264287948608 3.428000450134 135 135 135
22.401268005371 7.279819488525 3.463999748230 137 137 137
22.399572372437 7.264287948608 3.501000404358 125 125 125
22.399572372437 7.264287948608 3.537999153137 132 132 132
22.399572372437 7.264287948608 3.574999809265 138 138 138
22.399572372437 7.264287948608 3.612000465393 144 144 144
22.399572372437 7.264287948608 3.647999763489 149 149 149
22.399572372437 7.264287948608 3.685999870300 140 140 140
22.399572372437 7.264287948608 3.723000526428 143 143 143
22.399572372437 7.264287948608 3.761000633240 143 143 143
22.399572372437 7.264287948608 3.799000740051 146 146 146
22.399572372437 7.264287948608 3.835999488831 137 137 137
22.399572372437 7.264287948608 3.873000144958 130 130 130
22.397876739502 7.248754501343 3.911999702454 126 126 126
22.397876739502 7.248754501343 3.952000617981 142 142 142
22.399572372437 7.264287948608 3.987999916077 131 131 131
22.399572372437 7.264287948608 4.026000022888 129 129 129
22.397876739502 7.248754501343 4.064999580383 125 125 125
22.397876739502 7.248754501343 4.102999687195 130 130 130
22.397876739502 7.248754501343 4.144999504089 138 138 138
22.397876739502 7.248754501343 4.181000709534 133 133 133
22.397876739502 7.248754501343 4.220999717712 127 127 127
22.397876739502 7.248754501343 4.261000633240 121 121 121
22.397876739502 7.248754501343 4.301999092102 125 125 125
22.397876739502 7.248754501343 4.342000007629 130 130 130
22.397876739502 7.248754501343 4.383999824524 137 137 137
22.397876739502 7.248754501343 4.425000190735 125 125 125
22.397876739502 7.248754501343 4.466000556946 122 122 122
22.399572372437 7.264287948608 4.502999305725 113 113 113
22.397876739502 7.248754501343 4.550000190735 124 124 124
22.396181106567 7.233222961426 4.595000267029 133 133 133
22.397876739502 7.248754501343 4.637000083923 127 127 127
22.396181106567 7.233222961426 4.682000160217 122 122 122
22.396181106567 7.233222961426 4.727999687195 116 116 116
22.396181106567 7.233222961426 4.768000602722 116 116 116
22.396181106567 7.233222961426 4.817000389099 109 109 109
22.396181106567 7.233222961426 4.863999366760 108 108 108
22.396181106567 7.233222961426 4.907999992371 117 117 117
22.396181106567 7.233222961426 4.953000068665 117 117 117
22.396181106567 7.233222961426 5.005000114441 119 119 119
22.396181106567 7.233222961426 5.053000450134 123 123 123
22.394485473633 7.217689514160 5.101000785828 110 110 110
22.396181106567 7.233222961426 5.147000312805 113 113 113
22.394485473633 7.217689514160 5.199999809265 117 117 117
22.394485473633 7.217689514160 5.251000404358 119 119 119
22.394485473633 7.217689514160 5.300999641418 116 116 116
22.394485473633 7.217689514160 5.352999687195 123 123 123
22.394485473633 7.217689514160 5.408999443054 121 121 121
22.394485473633 7.217689514160 5.460000038147 122 122 122
22.394485473633 7.217689514160 5.516999244690 116 116 116
22.394485473633 7.217689514160 5.575999259949 129 129 129
22.394485473633 7.217689514160 5.627999305725 134 134 134
22.392789840698 7.202156066895 5.699000358582 116 116 116
22.392789840698 7.202156066895 5.751000404358 117 117 117
22.392789840698 7.202156066895 5.807000160217 116 116 116
22.392789840698 7.202156066895 5.869999885559 115 115 115
22.392789840698 7.202156066895 5.932000160217 109 109 109
22.391094207764 7.186624526978 6.005000114441 105 105 105
22.391094207764 7.186624526978 6.067999839783 95 95 95
22.391094207764 7.186624526978 6.130999565125 105 105 105
22.394485473633 7.217689514160 6.172999382019 131 131 131
22.453224182129 7.179840087891 6.279000282288 108 108 108
22.453224182129 7.179840087891 6.343998908997 100 100 100
22.453224182129 7.179840087891 6.414999961853 98 98 98
22.449832916260 7.148775100708 6.508999824524 84 84 84
22.451528549194 7.164306640625 6.581000328064 89 89 89
22.446441650391 7.117708206177 6.703999519348 76 76 76
22.449832916260 7.148775100708 6.748999595642 98 98 98
22.389396667480 7.171091079712 6.796000480652 125 125 125
22.391094207764 7.186624526978 6.873999595642 124 124 124
22.449832916260 7.148775100708 6.992999076843 114 114 114
22.448135375977 7.133241653442 7.101000785828 123 123 123
22.448135375977 7.133241653442 7.196999549866 127 127 127
22.446441650391 7.117708206177 7.293999671936 125 125 125
22.444744110107 7.102176666260 7.414000511169 125 125 125
22.444744110107 7.102176666260 7.530999183655 129 129 129
22.443048477173 7.086643218994 7.641999244690 131 131 131
22.443048477173 7.086643218994 7.751999855042 136 136 136
22.448135375977 7.133241653442 7.770998954773 111 111 111
22.501789093018 7.048795700073 8.016999244690 137 137 137
22.501789093018 7.048795700073 8.144000053406 136 136 136
22.501789093018 7.048795700073 8.256999015808 118 118 118
22.501789093018 7.048795700073 8.369000434875 130 130 130
22.446441650391 7.117708206177 8.372000694275 108 108 108
22.448135375977 7.133241653442 8.494000434875 112 112 112
22.441352844238 7.071111679077 8.741999626160 172 172 172
22.443048477173 7.086643218994 8.863999366760 150 150 150
22.498395919800 7.017730712891 9.116999626160 147 147 147
22.439657211304 7.055578231812 9.217999458313 120 120 120
22.441352844238 7.071111679077 9.352000236511 159 159 159
22.439657211304 7.055578231812 9.557000160217 150 150 150
22.441352844238 7.071111679077 9.690999031067 126 126 126
22.439657211304 7.055578231812 9.888998985291 111 111 111
22.441352844238 7.071111679077 10.056000709534 72 72 72
22.441352844238 7.071111679077 10.240000724792 65 65 65
22.387701034546 7.155559539795 1.364000320435 168 168 168
22.382614135742 7.108961105347 1.369999885559 168 168 168
22.437961578369 7.040044784546 1.380999565125 169 169 169
22.434570312500 7.008979797363 1.409999847412 112 112 112
22.495004653931 6.986665725708 1.458000183105 102 102 102
22.495004653931 6.986665725708 1.506999969482 106 106 106
22.280399322510 7.324453353882 1.758999824524 112 112 112
22.280399322510 7.324453353882 1.812000274658 133 133 133
22.280399322510 7.324453353882 1.854000091553 151 151 151
22.280399322510 7.324453353882 1.895998954773 148 148 148
22.280399322510 7.324453353882 1.939000129700 148 148 148
22.280399322510 7.324453353882 1.983000755310 146 146 146
22.278703689575 7.308919906616 2.022000312805 146 146 146
22.280399322510 7.324453353882 2.068999290466 138 138 138
22.219964981079 7.346767425537 2.119000434875 120 120 120
22.218269348145 7.331235885620 2.154000282288 119 119 119
22.278703689575 7.308919906616 2.189999580383 139 139 139
22.280399322510 7.324453353882 2.231999397278 137 137 137
22.280399322510 7.324453353882 2.270998954773 130 130 130
22.280399322510 7.324453353882 2.313000679016 131 131 131
22.218269348145 7.331235885620 2.355999946594 130 130 130
22.280399322510 7.324453353882 2.393000602722 135 135 135
22.218269348145 7.331235885620 2.432999610901 135 135 135
22.278703689575 7.308919906616 2.467999458313 108 108 108
22.271919250488 7.246789932251 2.483000755310 86 86 86
22.380918502808 7.093427658081 2.476000785828 81 81 81
22.432872772217 6.993448257446 2.487999916077 117 117 117
22.432872772217 6.993448257446 2.530999183655 116 116 116
22.431179046631 6.977914810181 2.571999549866 115 115 115
22.432872772217 6.993448257446 2.615000724792 110 110 110
22.432872772217 6.993448257446 2.658999443054 107 107 107
22.432872772217 6.993448257446 2.700999259949 111 111 111
22.431179046631 6.977914810181 2.741000175476 115 115 115
22.431179046631 6.977914810181 2.782999992371 114 114 114
22.431179046631 6.977914810181 2.822999000549 119 119 119
22.431179046631 6.977914810181 2.865000724792 116 116 116
22.432872772217 6.993448257446 2.907000541687 117 117 117
22.431179046631 6.977914810181 2.947999000549 118 118 118
22.431179046631 6.977914810181 2.987999916077 120 120 120
22.431179046631 6.977914810181 3.029999732971 124 124 124
22.431179046631 6.977914810181 3.071000099182 128 128 128
22.380918502808 7.093427658081 3.119999885559 66 66 66
22.380918502808 7.093427658081 3.158999443054 144 144 144
22.380918502808 7.093427658081 3.197999000549 140 140 140
22.380918502808 7.093427658081 3.237000465393 108 108 108
22.431179046631 6.977914810181 3.273999214172 126 126 126
22.432872772217 6.993448257446 3.314000129700 116 116 116
22.432872772217 6.993448257446 3.353999137878 117 117 117
