17.613689422607 24.043678283691 6.277000427246 122 122 122
17.605644226074 24.059183120728 6.332000732422 114 114 114
17.621501922607 24.043794631958 6.391998291016 118 118 118
17.613689422607 24.043678283691 6.447998046875 117 117 117
17.613689422607 24.043678283691 6.507003784180 127 127 127
17.621501922607 24.043794631958 6.566001892090 123 123 123
17.621501922607 24.043794631958 6.624000549316 122 122 122
17.621501922607 24.043794631958 6.681999206543 112 112 112
17.605644226074 24.059183120728 6.736000061035 165 165 165
17.605644226074 24.059183120728 6.791000366211 134 134 134
17.581502914429 24.105701446533 6.835998535156 173 173 173
17.557363510132 24.152217864990 6.883003234863 171 171 171
17.557363510132 24.152217864990 6.942001342773 162 162 162
17.629547119141 24.028289794922 7.037002563477 134 134 134
17.621501922607 24.043794631958 7.093002319336 156 156 156
17.565410614014 24.136711120605 7.121002197266 136 136 136
17.557598114014 24.136594772339 7.179000854492 169 169 169
17.629547119141 24.028289794922 7.275001525879 118 118 118
17.637596130371 24.012783050537 7.344001770020 111 111 111
17.637596130371 24.012783050537 7.403999328613 114 114 114
17.637596130371 24.012783050537 7.462997436523 110 110 110
17.637596130371 24.012783050537 7.528999328613 112 112 112
17.637596130371 24.012783050537 7.590003967285 111 111 111
17.637596130371 24.012783050537 7.649002075195 105 105 105
17.637596130371 24.012783050537 7.713996887207 107 107 107
17.637596130371 24.012783050537 7.773002624512 116 116 116
17.645875930786 23.981655120850 7.838996887207 111 111 111
17.645875930786 23.981655120850 7.902000427246 110 110 110
17.653688430786 23.981771469116 7.970001220703 109 109 109
17.653923034668 23.966148376465 8.034004211426 115 115 115
17.653923034668 23.966148376465 8.097000122070 109 109 109
17.653923034668 23.966148376465 8.161003112793 102 102 102
17.661733627319 23.966266632080 8.227996826172 137 137 137
17.645875930786 23.981655120850 8.282997131348 152 152 152
17.613689422607 24.043678283691 8.328002929688 139 139 139
17.605644226074 24.059183120728 8.378997802734 179 179 179
17.581739425659 24.090076446533 8.430000305176 166 166 166
17.573928833008 24.089960098267 8.488998413086 148 148 148
17.645875930786 23.981655120850 8.610000610352 141 141 141
17.597597122192 24.074687957764 8.633003234863 136 136 136
17.581739425659 24.090076446533 8.689002990723 159 159 159
17.621973037720 24.012546539307 8.795997619629 112 112 112
17.654157638550 23.950525283813 8.897003173828 88 88 88
17.670017242432 23.935136795044 8.973999023438 95 95 95
17.670017242432 23.935136795044 9.043998718262 92 92 92
17.662204742432 23.935020446777 9.107002258301 99 99 99
17.670017242432 23.935136795044 9.180999755859 98 98 98
17.662204742432 23.935020446777 9.247001647949 98 98 98
17.670017242432 23.935136795044 9.319999694824 101 101 101
17.670017242432 23.935136795044 9.388999938965 94 94 94
17.668899536133 24.528938293457 7.484001159668 30 30 30
17.668899536133 24.528938293457 7.542999267578 27 27 27
17.668899536133 24.528938293457 7.600997924805 17 17 17
17.604995727539 24.621736526489 7.618003845215 59 59 59
17.580858230591 24.668252944946 7.656997680664 106 106 106
17.628665924072 24.606466293335 7.747001647949 42 42 42
17.581092834473 24.652629852295 7.778999328613 123 123 123
17.556951522827 24.699146270752 7.819000244141 100 100 100
17.701086044312 24.466913223267 8.987998962402 28 28 28
17.701086044312 24.466913223267 9.057998657227 25 25 25
17.685228347778 24.482301712036 9.110000610352 16 16 16
17.604995727539 24.621736526489 9.159004211426 20 20 20
17.581092834473 24.652629852295 9.194999694824 10 10 10
17.596302032471 25.199796676636 7.675003051758 101 101 101
17.588491439819 25.199678421021 8.063003540039 93 93 93
17.556541442871 25.246078491211 8.098999023438 118 118 118
17.548492431641 25.261583328247 8.142997741699 40 40 40
17.556541442871 25.246078491211 9.177001953125 40 40 40
17.580032348633 25.762113571167 7.691001892090 109 109 109
17.563940048218 25.793127059937 8.374000549316 104 104 104
17.547847747803 25.824138641357 8.412002563477 130 130 130
17.531751632690 25.855150222778 8.446998596191 69 69 69
17.539800643921 25.839643478394 9.156997680664 17 17 17
17.515893936157 25.870538711548 9.191001892090 84 84 84
17.571575164795 26.324550628662 7.716003417969 128 128 128
17.563291549683 26.355680465698 8.690002441406 95 95 95
17.539388656616 26.386573791504 8.718002319336 143 143 143
17.523294448853 26.417587280273 8.749000549316 110 110 110
17.507434844971 26.432975769043 9.183998107910 70 70 70
17.475013732910 26.510620117188 9.194999694824 16 16 16
17.602407455444 26.871952056885 7.729003906250 39 39 39
17.570457458496 26.918352127075 7.745002746582 125 125 125
17.570457458496 26.918352127075 9.012001037598 38 38 38
17.538505554199 26.964752197266 9.021003723145 112 112 112
17.522413253784 26.995761871338 9.050003051758 144 144 144
17.506790161133 26.995527267456 9.082000732422 102 102 102
17.490461349487 27.042163848877 9.169998168945 45 45 45
17.466556549072 27.073057174683 9.197998046875 97 97 97
17.386325836182 27.212490081787 9.236000061035 15 15 15
17.362890243530 27.212139129639 9.217002868652 20 20 20
17.386325836182 27.212490081787 7.670997619629 25 25 25
17.690273284912 27.263944625854 9.224998474121 20 20 20
17.572864532471 27.277805328369 9.192001342773 141 141 141
17.550134658813 27.230581283569 9.170997619629 154 154 154
17.527404785156 27.183359146118 9.164001464844 149 149 149
17.504440307617 27.151760101318 9.138999938965 81 81 81
17.557712554932 27.246320724487 8.473999023438 29 29 29
17.580909729004 27.262298583984 8.258003234863 12 12 12
17.573099136353 27.262182235718 8.216003417969 17 17 17
17.565757751465 27.230815887451 8.180000305176 15 15 15
17.573335647583 27.246557235718 7.980003356934 16 16 16
17.565757751465 27.230815887451 7.941001892090 22 22 22
17.580909729004 27.262298583984 7.878997802734 29 29 29
17.603876113892 27.293897628784 7.812004089355 70 70 70
17.603876113892 27.293897628784 7.767997741699 137 137 137
17.588487625122 27.278039932251 7.736999511719 70 70 70
17.588487625122 27.278039932251 7.692001342773 77 77 77
17.536098480225 26.605298995972 9.184997558594 54 54 54
17.581558227539 26.699745178223 8.885002136230 111 111 111
17.574216842651 26.668380737305 8.854003906250 147 147 147
17.551252365112 26.636781692505 8.818000793457 121 121 121
17.596946716309 26.715602874756 7.744003295898 117 117 117
17.536745071411 26.042745590210 9.177001953125 43 43 43
17.605405807495 26.153165817261 8.578002929688 90 90 90
17.574863433838 26.105825424194 8.553001403809 126 126 126
17.567522048950 26.074462890625 8.514999389648 113 113 113
17.620794296265 26.169023513794 7.723999023438 52 52 52
17.590486526489 26.106061935425 7.703002929688 96 96 96
17.583322525024 25.543388366699 9.197998046875 29 29 29
17.560592651367 25.496168136597 9.166999816895 53 53 53
17.613628387451 25.606353759766 8.272003173828 82 82 82
17.590898513794 25.559131622314 8.239997863770 134 134 134
17.583557128906 25.527765274048 8.201004028320 108 108 108
17.591133117676 25.543506622314 7.691001892090 108 108 108
17.584438323975 24.949590682983 9.174003601074 38 38 38
17.630369186401 25.012786865234 7.972000122070 67 67 67
17.607404708862 24.981189727783 7.934997558594 130 130 130
17.584672927856 24.933967590332 7.890998840332 101 101 101
17.622558593750 25.012670516968 7.690002441406 19 19 19
17.584672927856 24.933967590332 7.660003662109 61 61 61
17.669136047363 24.513315200806 9.227996826172 22 22 22
17.669136047363 24.513315200806 9.157997131348 91 91 91
17.676710128784 24.529054641724 9.088996887207 139 139 139
17.669136047363 24.513315200806 9.026000976563 134 134 134
17.653980255127 24.481832504272 8.975997924805 133 133 133
17.623203277588 24.450115203857 8.937004089355 65 65 65
17.653980255127 24.481832504272 8.844001770020 92 92 92
17.608051300049 24.418634414673 8.819999694824 161 161 161
17.585321426392 24.371412277222 8.777000427246 138 138 138
17.646404266357 24.466091156006 8.656997680664 120 120 120
17.615863800049 24.418750762939 8.623001098633 172 172 172
17.600709915161 24.387271881104 8.576004028320 155 155 155
17.570404052734 24.324308395386 8.535003662109 124 124 124
17.692098617554 24.544914245605 7.690002441406 44 44 44
17.684759140015 24.513549804688 7.640998840332 89 89 89
17.669370651245 24.497690200806 7.590003967285 82 82 82
17.669370651245 24.497690200806 7.528999328613 83 83 83
17.669370651245 24.497690200806 7.471000671387 62 62 62
17.631486892700 24.418987274170 7.319999694824 49 49 49
17.616098403931 24.403129577637 7.273002624512 129 129 129
17.585792541504 24.340166091919 7.234001159668 164 164 164
17.585792541504 24.340166091919 7.174003601074 149 149 149
17.593366622925 24.355907440186 7.111000061035 106 106 106
17.616333007813 24.387504577637 7.041000366211 124 124 124
17.585792541504 24.340166091919 6.997001647949 170 170 170
17.570873260498 24.293062210083 6.951004028320 160 160 160
17.547908782959 24.261461257935 6.904998779297 130 130 130
17.494871139526 24.151277542114 5.833999633789 23 23 23
17.700557708740 23.982475280762 9.446998596191 11 11 11
17.692981719971 23.966735839844 9.388000488281 123 123 123
17.685403823853 23.950996398926 9.321998596191 135 135 135
17.677829742432 23.935255050659 9.255996704102 137 137 137
17.670251846313 23.919513702393 9.199996948242 156 156 156
17.670251846313 23.919513702393 9.129997253418 148 148 148
17.654863357544 23.903656005859 9.065002441406 157 157 157
17.655097961426 23.888031005859 9.000999450684 155 155 155
17.655097961426 23.888031005859 8.934997558594 153 153 153
17.655097961426 23.888031005859 8.865997314453 157 157 157
17.647520065308 23.872291564941 8.803001403809 154 154 154
17.639709472656 23.872173309326 8.737998962402 154 154 154
17.647520065308 23.872291564941 8.665000915527 153 153 153
17.647520065308 23.872291564941 8.599998474121 156 156 156
17.647520065308 23.872291564941 8.532997131348 155 155 155
17.647520065308 23.872291564941 8.466003417969 146 146 146
17.639709472656 23.872173309326 8.401000976563 146 146 146
17.655332565308 23.872409820557 8.330001831055 143 143 143
17.655332565308 23.872409820557 8.264999389648 139 139 139
17.655332565308 23.872409820557 8.195999145508 135 135 135
17.655332565308 23.872409820557 8.133003234863 132 132 132
17.655097961426 23.888031005859 8.062004089355 126 126 126
17.662908554077 23.888149261475 7.996002197266 123 123 123
17.662908554077 23.888149261475 7.930999755859 118 118 118
17.670486450195 23.903888702393 7.862998962402 107 107 107
17.662908554077 23.888149261475 7.802001953125 106 106 106
17.655332565308 23.872409820557 7.741996765137 97 97 97
17.663143157959 23.872526168823 7.678001403809 96 96 96
17.663143157959 23.872526168823 7.614997863770 96 96 96
17.663143157959 23.872526168823 7.552001953125 95 95 95
17.655332565308 23.872409820557 7.494003295898 88 88 88
17.655332565308 23.872409820557 7.430999755859 83 83 83
17.663143157959 23.872526168823 7.364997863770 72 72 72
17.662908554077 23.888149261475 7.301002502441 65 65 65
17.655332565308 23.872409820557 7.244003295898 61 61 61
17.655332565308 23.872409820557 7.181999206543 53 53 53
17.663143157959 23.872526168823 7.116996765137 42 42 42
17.655332565308 23.872409820557 7.058998107910 29 29 29
17.639944076538 23.856552124023 7.004997253418 14 14 14
17.655332565308 23.872409820557 6.937004089355 9 9 9
17.735857009888 24.233036041260 8.724998474121 149 149 149
17.712656021118 24.217060089111 8.707000732422 189 189 189
17.712890625000 24.201435089111 8.670997619629 202 202 202
17.705316543579 24.185695648193 8.648002624512 204 204 204
17.690162658691 24.154214859009 8.641998291016 205 205 205
17.705316543579 24.185695648193 8.541000366211 210 210 210
17.705080032349 24.201318740845 8.472000122070 206 206 206
17.705316543579 24.185695648193 8.442001342773 208 208 208
17.689928054810 24.169837951660 8.419998168945 211 211 211
17.690162658691 24.154214859009 8.395004272461 209 209 209
17.666961669922 24.138238906860 8.388000488281 213 213 213
17.659383773804 24.122497558594 8.361000061035 194 194 194
17.644231796265 24.091018676758 8.347000122070 165 165 165
17.636655807495 24.075275421143 8.278999328613 156 156 156
17.621501922607 24.043794631958 8.261001586914 183 183 183
17.613924026489 24.028053283691 8.234001159668 148 148 148
17.613924026489 24.028053283691 7.932998657227 43 43 43
17.613689422607 24.043678283691 7.876998901367 63 63 63
17.613689422607 24.043678283691 7.833999633789 86 86 86
17.621267318726 24.059417724609 7.784004211426 104 104 104
17.613689422607 24.043678283691 7.750000000000 117 117 117
17.621267318726 24.059417724609 7.703002929688 120 120 120
17.621267318726 24.059417724609 7.670997619629 137 137 137
17.621267318726 24.059417724609 7.633003234863 147 147 147
17.613689422607 24.043678283691 7.596000671387 152 152 152
17.621267318726 24.059417724609 7.550003051758 159 159 159
17.621267318726 24.059417724609 7.514999389648 166 166 166
17.621267318726 24.059417724609 7.474998474121 167 167 167
17.621267318726 24.059417724609 7.440002441406 172 172 172
17.621267318726 24.059417724609 7.402999877930 177 177 177
17.621267318726 24.059417724609 7.363998413086 180 180 180
17.666727066040 24.153861999512 7.243003845215 202 202 202
17.689693450928 24.185461044312 7.173004150391 196 196 196
17.689693450928 24.185461044312 7.136001586914 193 193 193
17.666492462158 24.169485092163 7.132003784180 202 202 202
17.651338577271 24.138004302979 7.132003784180 201 201 201
17.636184692383 24.106523513794 7.130996704102 202 202 202
17.628608703613 24.090782165527 7.101997375488 194 194 194
17.636184692383 24.106523513794 7.064002990723 198 198 198
17.621032714844 24.075040817261 7.052001953125 192 192 192
17.658914566040 24.153743743896 6.957000732422 202 202 202
17.666492462158 24.169485092163 6.912002563477 202 202 202
17.674304962158 24.169603347778 6.863998413086 206 206 206
17.666492462158 24.169485092163 6.846000671387 206 206 206
17.658914566040 24.153743743896 6.834999084473 206 206 206
17.643526077271 24.137886047363 6.818000793457 208 208 208
17.643760681152 24.122264862061 6.805000305176 205 205 205
17.636184692383 24.106523513794 6.785003662109 203 203 203
17.636184692383 24.106523513794 6.750000000000 198 198 198
17.636184692383 24.106523513794 6.721000671387 195 195 195
17.620798110962 24.090663909912 6.709999084473 188 188 188
17.620798110962 24.090663909912 6.680999755859 199 199 199
17.620798110962 24.090663909912 6.650001525879 198 198 198
17.620798110962 24.090663909912 6.625000000000 200 200 200
17.620798110962 24.090663909912 6.597000122070 197 197 197
17.620798110962 24.090663909912 6.568000793457 200 200 200
17.628372192383 24.106405258179 6.536003112793 198 198 198
17.620798110962 24.090663909912 6.513999938965 201 201 201
17.628372192383 24.106405258179 6.481002807617 198 198 198
17.628372192383 24.106405258179 6.455001831055 202 202 202
17.628372192383 24.106405258179 6.426002502441 199 199 199
17.628372192383 24.106405258179 6.402000427246 199 199 199
17.620561599731 24.106288909912 6.376998901367 199 199 199
17.628372192383 24.106405258179 6.347000122070 198 198 198
17.628372192383 24.106405258179 6.321998596191 200 200 200
17.628372192383 24.106405258179 6.295997619629 199 199 199
17.628372192383 24.106405258179 6.266998291016 200 200 200
17.628372192383 24.106405258179 6.243003845215 197 197 197
17.628372192383 24.106405258179 6.218002319336 200 200 200
17.628372192383 24.106405258179 6.191001892090 199 199 199
17.620561599731 24.106288909912 6.168998718262 198 198 198
17.620561599731 24.106288909912 6.145004272461 196 196 196
17.628137588501 24.122028350830 6.115997314453 199 199 199
17.620561599731 24.106288909912 6.095001220703 198 198 198
17.628137588501 24.122028350830 6.068000793457 199 199 199
17.620561599731 24.106288909912 6.048004150391 200 200 200
17.628137588501 24.122028350830 6.018997192383 200 200 200
17.628137588501 24.122028350830 5.996002197266 199 199 199
17.620326995850 24.121910095215 5.973999023438 198 198 198
17.620326995850 24.121910095215 5.948997497559 199 199 199
17.620326995850 24.121910095215 5.927001953125 194 194 194
17.628137588501 24.122028350830 5.900001525879 197 197 197
17.620326995850 24.121910095215 5.878997802734 199 199 199
17.628137588501 24.122028350830 5.854003906250 198 198 198
17.620326995850 24.121910095215 5.832000732422 198 198 198
17.706077575684 24.654510498047 9.194000244141 35 35 35
17.690689086914 24.638652801514 9.173004150391 122 122 122
17.683347702026 24.607288360596 9.170997619629 94 94 94
17.660383224487 24.575689315796 9.173004150391 50 50 50
17.645229339600 24.544208526611 9.096000671387 116 116 116
17.637416839600 24.544090270996 9.051002502441 158 158 158
17.637416839600 24.544090270996 8.999000549316 175 175 175
17.614454269409 24.512493133545 8.997001647949 181 181 181
17.591722488403 24.465269088745 8.998001098633 175 175 175
17.584381103516 24.433904647827 8.990997314453 124 124 124
17.705371856689 24.701379776001 7.806999206543 29 29 29
17.705606460571 24.685756683350 7.776000976563 144 144 144
17.690219879150 24.669898986816 7.762001037598 184 184 184
17.682643890381 24.654157638550 7.750000000000 186 186 186
17.682643890381 24.654157638550 7.695999145508 175 175 175
17.682643890381 24.654157638550 7.652999877930 175 175 175
17.675065994263 24.638416290283 7.650001525879 169 169 169
17.644289016724 24.606700897217 7.657997131348 152 152 152
17.636713027954 24.590959548950 7.648002624512 131 131 131
17.644289016724 24.606700897217 7.597000122070 162 162 162
17.644289016724 24.606700897217 7.544998168945 160 160 160
17.644289016724 24.606700897217 7.516998291016 167 167 167
17.636713027954 24.590959548950 7.488998413086 178 178 178
17.629137039185 24.575220108032 7.485000610352 179 179 179
17.613748550415 24.559362411499 7.468002319336 187 187 187
17.606405258179 24.527997970581 7.470001220703 190 190 190
17.583677291870 24.480773925781 7.484001159668 179 179 179
17.629137039185 24.575220108032 7.342002868652 170 170 170
17.628902435303 24.590843200684 7.291000366211 194 194 194
17.636713027954 24.590959548950 7.245002746582 197 197 197
17.628902435303 24.590843200684 7.217002868652 195 195 195
17.628902435303 24.590843200684 7.182998657227 198 198 198
17.628902435303 24.590843200684 7.151000976563 203 203 203
17.629137039185 24.575220108032 7.137001037598 174 174 174
17.606170654297 24.543621063232 7.135002136230 121 121 121
17.683639526367 25.107349395752 9.180999755859 126 126 126
17.660676956177 25.075750350952 9.177001953125 146 146 146
17.653333663940 25.044385910034 9.175003051758 23 23 23
17.690513610840 25.169960021973 8.041999816895 134 134 134
17.690748214722 25.154336929321 8.022003173828 185 185 185
17.683170318604 25.138597488403 8.003997802734 191 191 191
17.668016433716 25.107112884521 7.994003295898 182 182 182
17.652629852295 25.091255187988 7.991996765137 154 154 154
17.637241363525 25.075397491455 7.986999511719 45 45 45
17.682935714722 25.154220581055 7.676002502441 152 152 152
17.667547225952 25.138360977173 7.670997619629 179 179 179
17.660205841064 25.106996536255 7.676002502441 147 147 147
17.660734176636 25.591434478760 9.180000305176 102 102 102
17.645345687866 25.575576782227 9.173004150391 158 158 158
17.630426406860 25.528470993042 9.183998107910 96 96 96
17.690805435181 25.670021057129 8.320999145508 30 30 30
17.683229446411 25.654279708862 8.308998107910 152 152 152
17.675651550293 25.638540267944 8.288002014160 186 186 186
17.660263061523 25.622680664063 8.277999877930 186 186 186
17.652687072754 25.606941223145 8.254997253418 176 176 176
17.637533187866 25.575460433960 8.264999389648 127 127 127
17.682994842529 25.669902801514 7.682998657227 149 149 149
17.675416946411 25.654163360596 7.688003540039 192 192 192
17.660028457642 25.638303756714 7.684997558594 179 179 179
17.652687072754 25.606941223145 7.690002441406 116 116 116
17.638296127319 26.044273376465 9.138999938965 136 136 136
17.660556793213 26.122741699219 8.614997863770 216 216 216
17.660791397095 26.107118606567 8.542999267578 183 183 183
17.653213500977 26.091377258301 8.530998229980 182 182 182
17.638061523438 26.059896469116 8.536003112793 166 166 166
17.622673034668 26.044038772583 8.513000488281 99 99 99
17.683286666870 26.169963836670 7.709999084473 51 51 51
17.675710678101 26.154222488403 7.709999084473 159 159 159
17.668132781982 26.138483047485 7.705001831055 187 187 187
17.652744293213 26.122623443604 7.705001831055 175 175 175
17.637592315674 26.091142654419 7.708999633789 97 97 97
17.653507232666 26.591438293457 8.843002319336 131 131 131
17.676002502441 26.654285430908 7.724998474121 155 155 155
17.660614013672 26.638427734375 7.719001770020 192 192 192
17.653272628784 26.607061386108 7.720001220703 193 193 193
17.637884140015 26.591203689575 7.733001708984 140 140 140
17.577505111694 26.449655532837 9.182998657227 50 50 50
17.645931243896 26.575696945190 8.819000244141 153 153 153
17.585083007813 26.465396881104 9.252998352051 137 137 137
17.646224975586 27.075759887695 7.752998352051 136 136 136
17.638881683350 27.044395446777 9.059997558594 165 165 165
17.631305694580 27.028654098511 9.043998718262 186 186 186
17.623964309692 26.997289657593 9.035003662109 174 174 174
17.608575820923 26.981431961060 9.029998779297 105 105 105
17.600997924805 26.965690612793 9.183998107910 73 73 73
17.585844039917 26.934209823608 9.179000854492 164 164 164
17.570457458496 26.918352127075 9.189002990723 98 98 98
17.668952941895 27.122982025146 7.808998107910 144 144 144
17.661376953125 27.107240676880 7.780998229980 157 157 157
17.433429718018 27.197572708130 9.179000854492 107 107 107
17.440773010254 27.228935241699 9.170997619629 123 123 123
17.425384521484 27.213077545166 7.674003601074 104 104 104
17.432960510254 27.228818893433 7.666999816895 169 169 169
17.525466918945 26.792659759521 9.189002990723 130 130 130
17.533044815063 26.808401107788 9.193000793457 148 148 148
17.563585281372 26.855741500854 8.958999633789 99 99 99
17.571395874023 26.855859756470 8.946998596191 162 162 162
17.578739166260 26.887224197388 9.016998291016 158 158 158
17.616621017456 26.965927124023 7.730003356934 171 171 171
17.624198913574 26.981666564941 7.737998962402 188 188 188
17.624198913574 26.981666564941 7.739997863770 172 172 172
17.639350891113 27.013147354126 7.752998352051 92 92 92
17.480064392090 27.213899612427 9.182998657227 141 141 141
17.495218276978 27.245382308960 9.173004150391 170 170 170
17.510604858398 27.261241912842 9.169998168945 173 173 173
17.480064392090 27.213899612427 7.676002502441 189 189 189
17.487407684326 27.245264053345 7.671997070313 142 142 142
17.509666442871 27.323734283447 9.183998107910 54 54 54
17.542324066162 27.230463027954 7.681999206543 161 161 161
17.558181762695 27.215074539185 7.677001953125 220 220 220
17.557712554932 27.246320724487 9.133003234863 141 141 141
17.565992355347 27.215192794800 9.034004211426 152 152 152
17.574039459229 27.199687957764 9.154998779297 163 163 163
17.597707748413 27.184415817261 9.138999938965 157 157 157
17.606225967407 27.137664794922 9.133003234863 118 118 118
17.622552871704 27.091030120850 7.763000488281 127 127 127
17.630601882935 27.075525283813 7.750999450684 183 183 183
17.638647079468 27.060018539429 7.744003295898 183 183 183
17.654504776001 27.044631958008 7.747001647949 131 131 131
17.541324615479 26.777273178101 9.189002990723 110 110 110
17.565231323242 26.746377944946 9.190002441406 139 139 139
17.676418304443 24.028993606567 6.722999572754 129 129 129
17.675714492798 24.075862884521 6.708000183105 170 170 170
17.683290481567 24.091606140137 6.722999572754 185 185 185
17.683053970337 24.107227325439 6.739997863770 183 183 183
17.683053970337 24.107227325439 6.777999877930 45 45 45
17.683994293213 24.044734954834 6.901000976563 69 69 69
17.683994293213 24.044734954834 6.928001403809 44 44 44
17.683994293213 24.044734954834 6.961997985840 97 97 97
17.683994293213 24.044734954834 6.999000549316 40 40 40
17.683994293213 24.044734954834 7.031997680664 133 133 133
17.675714492798 24.075862884521 7.032997131348 171 171 171
17.675714492798 24.075862884521 7.055999755859 182 182 182
17.683290481567 24.091606140137 7.072998046875 171 171 171
17.683994293213 24.044734954834 7.164001464844 79 79 79
17.683994293213 24.044734954834 7.198997497559 85 85 85
17.683994293213 24.044734954834 7.238998413086 104 104 104
17.683994293213 24.044734954834 7.277999877930 111 111 111
17.683994293213 24.044734954834 7.308998107910 114 114 114
17.683994293213 24.044734954834 7.347000122070 133 133 133
17.683994293213 24.044734954834 7.390998840332 114 114 114
17.683994293213 24.044734954834 7.425003051758 120 120 120
17.676418304443 24.028993606567 7.484001159668 128 128 128
17.676418304443 24.028993606567 7.512001037598 132 132 132
17.676418304443 24.028993606567 7.552001953125 141 141 141
17.676418304443 24.028993606567 7.595001220703 146 146 146
17.676418304443 24.028993606567 7.639999389648 137 137 137
17.683994293213 24.044734954834 7.674003601074 151 151 151
17.676418304443 24.028993606567 7.722999572754 153 153 153
17.676418304443 24.028993606567 7.763000488281 154 154 154
17.676418304443 24.028993606567 7.814002990723 156 156 156
17.676418304443 24.028993606567 7.866996765137 156 156 156
17.676654815674 24.013370513916 7.926002502441 156 156 156
17.678356170654 24.419692993164 7.443000793457 156 156 156
17.670074462891 24.450820922852 7.443000793457 171 171 171
17.669605255127 24.482067108154 7.442001342773 179 179 179
17.669136047363 24.513315200806 7.440002441406 178 178 178
17.668899536133 24.528938293457 7.443000793457 191 191 191
17.660852432251 24.544443130493 7.461997985840 171 171 171
17.668195724487 24.575807571411 7.466003417969 171 171 171
17.668195724487 24.575807571411 7.494003295898 166 166 166
17.660148620605 24.591312408447 7.530998229980 162 162 162
17.668195724487 24.575807571411 7.585998535156 155 155 155
17.660852432251 24.544443130493 7.668998718262 86 86 86
17.668430328369 24.560184478760 7.705001831055 157 157 157
17.668195724487 24.575807571411 7.712997436523 162 162 162
17.667724609375 24.607053756714 7.732002258301 99 99 99
17.683994293213 24.044734954834 8.661003112793 154 154 154
17.683290481567 24.091606140137 8.634002685547 180 180 180
17.683053970337 24.107227325439 8.677001953125 170 170 170
17.682350158691 24.154098510742 8.637001037598 188 188 188
17.681644439697 24.200965881348 8.629997253418 167 167 167
17.680940628052 24.247837066650 8.641998291016 180 180 180
17.672895431519 24.263341903687 8.667999267578 182 182 182
17.680469512939 24.279083251953 8.695999145508 183 183 183
17.672189712524 24.310213088989 8.708999633789 187 187 187
17.679531097412 24.341575622559 8.722000122070 185 185 185
17.663436889648 24.372587203979 8.710998535156 132 132 132
17.670780181885 24.403951644897 8.718002319336 136 136 136
17.670309066772 24.435197830200 8.725997924805 139 139 139
17.662733078003 24.419456481934 8.817001342773 140 140 140
17.662733078003 24.419456481934 8.886001586914 160 160 160
17.662733078003 24.419456481934 8.948997497559 164 164 164
17.670309066772 24.435197830200 8.991996765137 165 165 165
17.669839859009 24.466444015503 9.000999450684 175 175 175
17.669370651245 24.497690200806 9.011001586914 157 157 157
17.661558151245 24.497571945190 9.068000793457 147 147 147
17.661558151245 24.497571945190 9.145004272461 128 128 128
17.642936706543 25.216125488281 7.699996948242 83 83 83
17.642230987549 25.262994766235 7.663002014160 72 72 72
17.634185791016 25.278499603271 7.656997680664 88 88 88
17.641527175903 25.309864044189 7.664001464844 92 92 92
17.633481979370 25.325368881226 7.661003112793 103 103 103
17.633010864258 25.356616973877 7.654998779297 115 115 115
17.632776260376 25.372240066528 7.670997619629 118 118 118
17.632307052612 25.403486251831 7.664001464844 123 123 123
17.632072448730 25.419109344482 7.674003601074 132 132 132
17.631601333618 25.450355529785 7.677001953125 138 138 138
17.631366729736 25.465978622437 7.666999816895 145 145 145
17.630897521973 25.497224807739 7.680999755859 148 148 148
17.630661010742 25.512847900391 7.674003601074 154 154 154
17.630191802979 25.544094085693 7.673004150391 159 159 159
17.629957199097 25.559719085693 7.682998657227 163 163 163
17.629487991333 25.590965270996 7.675003051758 165 165 165
17.629016876221 25.622211456299 7.676002502441 168 168 168
17.628547668457 25.653457641602 7.675003051758 174 174 174
17.628313064575 25.669080734253 7.670997619629 174 174 174
17.620264053345 25.684585571289 7.680000305176 177 177 177
17.627607345581 25.715950012207 7.680999755859 175 175 175
17.619560241699 25.731454849243 7.680000305176 175 175 175
17.626901626587 25.762819290161 7.680000305176 176 176 176
17.618854522705 25.778326034546 7.680999755859 178 178 178
17.610809326172 25.793832778931 7.685997009277 180 180 180
17.618150711060 25.825195312500 7.690002441406 184 184 184
17.610105514526 25.840702056885 7.684997558594 185 185 185
17.617444992065 25.872064590454 7.684997558594 185 185 185
17.617210388184 25.887687683105 7.685997009277 180 180 180
17.616975784302 25.903310775757 7.689002990723 182 182 182
17.616504669189 25.934556961060 7.690002441406 186 186 186
17.616270065308 25.950180053711 7.693000793457 185 185 185
17.616035461426 25.965803146362 7.677001953125 180 180 180
17.607990264893 25.981309890747 7.689002990723 179 179 179
17.607755661011 25.996934890747 7.690002441406 183 183 183
17.607049942017 26.043804168701 7.695999145508 180 180 180
17.607049942017 26.043804168701 7.684997558594 178 178 178
17.606580734253 26.075050354004 7.695999145508 184 184 184
17.606109619141 26.106296539307 7.705001831055 182 182 182
17.605875015259 26.121919631958 7.694999694824 185 185 185
17.605640411377 26.137542724609 7.704002380371 182 182 182
17.605171203613 26.168788909912 7.699996948242 183 183 183
17.604934692383 26.184412002563 7.704002380371 178 178 178
17.604700088501 26.200037002563 7.696998596191 180 180 180
17.604230880737 26.231283187866 7.703002929688 182 182 182
17.603996276855 26.246906280518 7.705001831055 179 179 179
17.603759765625 26.262529373169 7.711997985840 182 182 182
17.603290557861 26.293775558472 7.710998535156 173 173 173
17.595243453979 26.309280395508 7.713996887207 166 166 166
17.602821350098 26.325021743774 7.717002868652 165 165 165
17.594537734985 26.356149673462 7.709999084473 164 164 164
17.602115631104 26.371891021729 7.718002319336 157 157 157
17.594068527222 26.387395858765 7.720001220703 157 157 157
17.601411819458 26.418762207031 7.724998474121 159 159 159
17.593362808228 26.434267044067 7.711997985840 135 135 135
17.593128204346 26.449890136719 7.744003295898 168 168 168
17.585083007813 26.465396881104 7.732002258301 118 118 118
17.592424392700 26.496759414673 7.722999572754 107 107 107
17.584142684937 26.527889251709 7.731002807617 99 99 99
17.591484069824 26.559251785278 7.722000122070 87 87 87
17.600706100464 26.465631484985 8.785003662109 118 118 118
17.592658996582 26.481136322021 8.841003417969 121 121 121
17.600000381470 26.512500762939 8.827003479004 116 116 116
17.591484069824 26.559251785278 8.865997314453 120 120 120
17.591249465942 26.574874877930 8.860000610352 120 120 120
17.590778350830 26.606121063232 8.842002868652 124 124 124
17.590309143066 26.637369155884 8.849998474121 124 124 124
17.589839935303 26.668615341187 8.850997924805 120 120 120
17.589603424072 26.684238433838 8.861999511719 121 121 121
17.589134216309 26.715484619141 8.876998901367 125 125 125
17.580854415894 26.746614456177 8.895004272461 119 119 119
17.588428497314 26.762353897095 8.901000976563 109 109 109
17.595771789551 26.793718338013 8.926002502441 115 115 115
17.587490081787 26.824846267700 8.938003540039 117 117 117
17.594831466675 26.856212615967 8.953002929688 117 117 117
17.586784362793 26.871717453003 8.962997436523 115 115 115
17.586315155029 26.902963638306 8.983001708984 114 114 114
17.585844039917 26.934209823608 9.002998352051 114 114 114
17.585374832153 26.965456008911 9.007003784180 111 111 111
17.585140228271 26.981079101563 9.027000427246 114 114 114
17.576858520508 27.012208938599 9.049003601074 110 110 110
17.584199905396 27.043573379517 9.055999755859 102 102 102
17.583730697632 27.074819564819 9.081001281738 104 104 104
17.575448989868 27.105949401855 9.086997985840 103 103 103
17.582790374756 27.137311935425 9.107002258301 91 91 91
17.582319259644 27.168558120728 9.132003784180 78 78 78
17.574039459229 27.199687957764 9.142997741699 117 117 117
17.573570251465 27.230934143066 9.162002563477 166 166 166
17.573335647583 27.246557235718 9.167999267578 152 152 152
17.573570251465 27.230934143066 8.455001831055 118 118 118
17.574039459229 27.199687957764 7.849998474121 96 96 96
17.676654815674 24.013370513916 8.484001159668 151 151 151
17.677358627319 23.966501235962 8.712997436523 137 137 137
17.603055953979 26.309398651123 8.678001403809 134 134 134
17.594537734985 26.356149673462 8.747001647949 124 124 124
17.601881027222 26.387514114380 8.764999389648 122 122 122
17.601411819458 26.418762207031 8.776000976563 121 121 121
17.601175308228 26.434385299683 8.790000915527 127 127 127
17.617090225220 26.934680938721 7.747001647949 111 111 111
17.616855621338 26.950304031372 7.731002807617 175 175 175
17.600997924805 26.965690612793 7.734001159668 179 179 179
17.592952728271 26.981197357178 7.741996765137 137 137 137
17.561000823975 27.027595520020 9.027000427246 179 179 179
17.545143127441 27.042985916138 9.040000915527 174 174 174
17.536861419678 27.074115753174 9.068000793457 151 151 151
17.496862411499 27.136020660400 9.180999755859 143 143 143
17.481004714966 27.151407241821 9.184997558594 146 146 146
17.576858520508 27.012208938599 9.083000183105 136 136 136
17.624374389648 26.450361251831 7.726997375488 102 102 102
17.616329193115 26.465866088867 7.721000671387 177 177 177
17.600471496582 26.481254577637 7.718002319336 184 184 184
17.592424392700 26.496759414673 7.722999572754 146 146 146
17.600236892700 26.496877670288 8.755996704102 63 63 63
17.584142684937 26.527889251709 8.751998901367 163 163 163
17.568284988403 26.543275833130 8.755996704102 174 174 174
17.552427291870 26.558664321899 8.775001525879 167 167 167
17.552192687988 26.574287414551 8.793998718262 134 134 134
17.536098480225 26.605298995972 9.191001892090 52 52 52
17.527816772461 26.636428833008 9.187004089355 147 147 147
17.504146575928 26.651700973511 9.190002441406 111 111 111
17.631658554077 25.966039657593 7.709999084473 94 94 94
17.615800857544 25.981426239014 7.706001281738 173 173 173
17.607519149780 26.012557983398 7.698997497559 175 175 175
17.599472045898 26.028062820435 7.712997436523 150 150 150
17.607519149780 26.012557983398 8.482002258301 137 137 137
17.591661453247 26.027946472168 8.489997863770 170 170 170
17.575803756714 26.043333053589 8.495002746582 173 173 173
17.559946060181 26.058721542358 8.509002685547 160 160 160
17.559711456299 26.074344635010 8.536003112793 100 100 100
17.551898956299 26.074228286743 9.189002990723 84 84 84
17.543617248535 26.105356216431 9.198997497559 164 164 164
17.527523040771 26.136367797852 9.194000244141 123 123 123
17.630897521973 25.497224807739 7.696998596191 113 113 113
17.622848510742 25.512729644775 7.697998046875 163 163 163
17.606756210327 25.543741226196 7.695999145508 178 178 178
17.590898513794 25.559131622314 7.704002380371 131 131 131
17.615274429321 25.496990203857 8.218002319336 127 127 127
17.606756210327 25.543741226196 8.225997924805 171 171 171
17.590898513794 25.559131622314 8.230003356934 176 176 176
17.590663909912 25.574754714966 8.240997314453 172 172 172
17.574806213379 25.590143203735 8.263000488281 143 143 143
17.574806213379 25.590143203735 9.182998657227 113 113 113
17.566759109497 25.605648040771 9.188003540039 151 151 151
17.542854309082 25.636541366577 9.191001892090 72 72 72
17.630369186401 25.012786865234 7.673004150391 138 138 138
17.622087478638 25.043916702271 7.684997558594 174 174 174
17.605995178223 25.074928283691 7.670997619629 153 153 153
17.638181686401 25.012905120850 7.958999633789 143 143 143
17.622087478638 25.043916702271 7.957000732422 166 166 166
17.606229782104 25.059305191040 7.972000122070 180 180 180
17.598182678223 25.074810028076 7.984001159668 167 167 167
17.590137481689 25.090314865112 8.001998901367 144 144 144
17.574277877808 25.105703353882 8.022003173828 55 55 55
17.605995178223 25.074928283691 9.182998657227 135 135 135
17.590137481689 25.090314865112 9.197998046875 152 152 152
17.574043273926 25.121326446533 9.190002441406 32 32 32
17.653274536133 24.528703689575 7.143997192383 128 128 128
17.636947631836 24.575336456299 7.135002136230 162 162 162
17.613279342651 24.590608596802 7.138999938965 177 177 177
17.613042831421 24.606231689453 7.154998779297 165 165 165
17.613042831421 24.606231689453 7.195999145508 169 169 169
17.597419738770 24.605995178223 7.209999084473 133 133 133
17.604995727539 24.621736526489 7.237998962402 152 152 152
17.613042831421 24.606231689453 7.284004211426 167 167 167
17.661323547363 24.513196945190 7.431999206543 155 155 155
17.661323547363 24.513196945190 7.468002319336 160 160 160
17.661323547363 24.513196945190 7.510002136230 150 150 150
17.629137039185 24.575220108032 7.472000122070 174 174 174
17.613042831421 24.606231689453 7.472999572754 160 160 160
17.613042831421 24.606231689453 7.498001098633 147 147 147
17.604995727539 24.621736526489 7.524002075195 129 129 129
17.604995727539 24.621736526489 7.558998107910 131 131 131
17.613042831421 24.606231689453 7.609001159668 137 137 137
17.613042831421 24.606231689453 7.657997131348 151 151 151
17.629137039185 24.575220108032 7.734001159668 141 141 141
17.613042831421 24.606231689453 7.731002807617 151 151 151
17.604995727539 24.621736526489 7.759002685547 115 115 115
17.669370651245 24.497690200806 8.674003601074 88 88 88
17.653274536133 24.528703689575 8.670997619629 167 167 167
17.645229339600 24.544208526611 8.696998596191 165 165 165
17.653274536133 24.528703689575 8.768997192383 167 167 167
17.661323547363 24.513196945190 8.857002258301 180 180 180
17.685228347778 24.482301712036 8.987998962402 183 183 183
17.669136047363 24.513315200806 8.991996765137 188 188 188
17.653274536133 24.528703689575 9.008003234863 177 177 177
17.636947631836 24.575336456299 9.017997741699 167 167 167
17.636947631836 24.575336456299 9.080001831055 158 158 158
17.636947631836 24.575336456299 9.140998840332 143 143 143
17.629137039185 24.575220108032 9.184997558594 130 130 130
17.597419738770 24.605995178223 9.178001403809 97 97 97
17.620326995850 24.121910095215 5.843002319336 190 190 190
17.620326995850 24.121910095215 5.868003845215 189 189 189
17.620326995850 24.121910095215 5.891998291016 190 190 190
17.620326995850 24.121910095215 5.915000915527 189 189 189
17.620326995850 24.121910095215 5.933998107910 189 189 189
17.620561599731 24.106288909912 5.961997985840 192 192 192
17.620561599731 24.106288909912 5.986000061035 189 189 189
17.620561599731 24.106288909912 6.008003234863 189 189 189
17.620561599731 24.106288909912 6.031997680664 189 189 189
17.628372192383 24.106405258179 6.058998107910 191 191 191
17.628372192383 24.106405258179 6.083000183105 191 191 191
17.628372192383 24.106405258179 6.106002807617 191 191 191
17.628372192383 24.106405258179 6.128997802734 188 188 188
17.628372192383 24.106405258179 6.152999877930 189 189 189
17.628372192383 24.106405258179 6.182998657227 192 192 192
17.628372192383 24.106405258179 6.207000732422 191 191 191
17.628372192383 24.106405258179 6.231002807617 192 192 192
17.628372192383 24.106405258179 6.254997253418 191 191 191
17.628372192383 24.106405258179 6.279998779297 190 190 190
17.628372192383 24.106405258179 6.306999206543 191 191 191
17.628372192383 24.106405258179 6.333999633789 189 189 189
17.628372192383 24.106405258179 6.359001159668 189 189 189
17.636184692383 24.106523513794 6.387001037598 193 193 193
17.636184692383 24.106523513794 6.414001464844 193 193 193
17.628372192383 24.106405258179 6.435997009277 189 189 189
17.628372192383 24.106405258179 6.465003967285 195 195 195
17.628608703613 24.090782165527 6.496002197266 193 193 193
17.628608703613 24.090782165527 6.522003173828 194 194 194
17.628608703613 24.090782165527 6.548004150391 190 190 190
17.636421203613 24.090900421143 6.582000732422 192 192 192
17.628608703613 24.090782165527 6.607002258301 190 190 190
17.628608703613 24.090782165527 6.633003234863 184 184 184
17.636421203613 24.090900421143 6.667999267578 184 184 184
17.628608703613 24.090782165527 6.690002441406 191 191 191
17.636184692383 24.106523513794 6.715003967285 192 192 192
17.628372192383 24.106405258179 6.736999511719 191 191 191
17.628372192383 24.106405258179 6.767997741699 195 195 195
17.628372192383 24.106405258179 6.796997070313 198 198 198
17.620326995850 24.121910095215 6.814002990723 199 199 199
17.604469299316 24.137298583984 6.823997497559 205 205 205
17.596656799316 24.137182235718 6.844001770020 205 205 205
17.588611602783 24.152687072754 6.857002258301 194 194 194
17.588846206665 24.137063980103 6.901000976563 194 194 194
17.628372192383 24.106405258179 6.977996826172 191 191 191
17.644466400146 24.075393676758 7.034004211426 191 191 191
17.636421203613 24.090900421143 7.056999206543 196 196 196
17.620798110962 24.090663909912 7.078002929688 192 192 192
17.628372192383 24.106405258179 7.107002258301 197 197 197
17.628372192383 24.106405258179 7.138999938965 204 204 204
17.604469299316 24.137298583984 7.137001037598 193 193 193
17.588611602783 24.152687072754 7.140998840332 181 181 181
17.604469299316 24.137298583984 7.203002929688 186 186 186
17.644466400146 24.075393676758 7.300003051758 193 193 193
17.644466400146 24.075393676758 7.342002868652 187 187 187
17.652278900146 24.075511932373 7.379997253418 182 182 182
17.652278900146 24.075511932373 7.416999816895 189 189 189
17.652513504028 24.059886932373 7.454002380371 192 192 192
17.652278900146 24.075511932373 7.486999511719 181 181 181
17.652513504028 24.059886932373 7.530998229980 192 192 192
17.652513504028 24.059886932373 7.569999694824 184 184 184
17.652513504028 24.059886932373 7.607002258301 186 186 186
17.652513504028 24.059886932373 7.648002624512 186 186 186
17.652748107910 24.044265747070 7.689002990723 181 181 181
17.652513504028 24.059886932373 7.722999572754 170 170 170
17.660793304443 24.028759002686 7.780998229980 185 185 185
17.652748107910 24.044265747070 7.807998657227 171 171 171
17.652748107910 24.044265747070 7.849998474121 173 173 173
17.652748107910 24.044265747070 7.891998291016 177 177 177
17.652748107910 24.044265747070 7.941001892090 174 174 174
17.660793304443 24.028759002686 7.986000061035 184 184 184
17.660793304443 24.028759002686 8.027000427246 169 169 169
17.660793304443 24.028759002686 8.072998046875 178 178 178
17.660793304443 24.028759002686 8.125000000000 173 173 173
17.668605804443 24.028877258301 8.169998168945 175 175 175
17.668605804443 24.028877258301 8.222999572754 185 185 185
17.660793304443 24.028759002686 8.250999450684 173 173 173
17.652513504028 24.059886932373 8.277999877930 176 176 176
17.652513504028 24.059886932373 8.318000793457 193 193 193
17.628608703613 24.090782165527 8.324996948242 196 196 196
17.628372192383 24.106405258179 8.349998474121 195 195 195
17.612514495850 24.121793746948 8.375999450684 203 203 203
17.604703903198 24.121677398682 8.409004211426 195 195 195
17.612514495850 24.121793746948 8.463996887207 179 179 179
17.652513504028 24.059886932373 8.621002197266 192 192 192
17.644466400146 24.075393676758 8.653999328613 193 193 193
17.628372192383 24.106405258179 8.660003662109 192 192 192
17.604703903198 24.121677398682 8.661003112793 188 188 188
17.612514495850 24.121793746948 8.730003356934 186 186 186
17.668605804443 24.028877258301 8.929000854492 169 169 169
17.676654815674 24.013370513916 9.017997741699 168 168 168
17.669076919556 23.997629165649 9.083999633789 170 170 170
17.684700012207 23.997863769531 9.149002075195 167 167 167
17.684700012207 23.997863769531 9.217002868652 165 165 165
17.684700012207 23.997863769531 9.277000427246 163 163 163
17.684700012207 23.997863769531 9.341003417969 166 166 166
17.684700012207 23.997863769531 9.407997131348 156 156 156
17.467966079712 26.979316711426 9.168998718262 156 156 156
17.483118057251 27.010797500610 9.192001342773 139 139 139
17.498506546021 27.026657104492 9.038002014160 79 79 79
17.506319046021 27.026773452759 9.029998779297 171 171 171
17.529285430908 27.058374404907 9.055000305176 192 192 192
17.536624908447 27.089738845825 9.058998107910 183 183 183
17.559825897217 27.105712890625 7.794998168945 183 183 183
17.567167282104 27.137077331543 7.733001708984 179 179 179
17.574745178223 27.152818679810 7.733001708984 193 193 193
17.590131759644 27.168676376343 7.738998413086 172 172 172
17.597707748413 27.184415817261 7.730003356934 86 86 86
17.620204925537 27.247261047363 9.206001281738 90 90 90
17.612627029419 27.231521606445 7.777999877930 175 175 175
17.620439529419 27.231637954712 7.681999206543 215 215 215
17.635828018188 27.247495651245 7.663002014160 192 192 192
17.370468139648 27.227878570557 9.223999023438 88 88 88
17.362890243530 27.212139129639 7.670997619629 94 94 94
17.370468139648 27.227878570557 7.654998779297 173 173 173
17.438657760620 27.369544982910 9.168998718262 63 63 63
17.446233749390 27.385286331177 9.166999816895 158 158 158
17.461385726929 27.416767120361 9.167999267578 114 114 114
17.616621017456 26.965927124023 7.741996765137 135 135 135
17.616386413574 26.981550216675 7.736999511719 185 185 185
17.600763320923 26.981313705444 7.733001708984 186 186 186
17.592481613159 27.012443542480 7.744003295898 127 127 127
17.536861419678 27.074115753174 9.056999206543 103 103 103
17.513189315796 27.089385986328 9.170997619629 77 77 77
17.504674911499 27.136137008667 9.181999206543 144 144 144
17.488817214966 27.151525497437 9.182998657227 80 80 80
17.545143127441 27.042985916138 9.096000671387 128 128 128
17.622964859009 26.544099807739 7.731002807617 77 77 77
17.607341766357 26.543863296509 7.725997924805 173 173 173
17.607107162476 26.559486389160 7.718002319336 192 192 192
17.591012954712 26.590497970581 7.727996826172 174 174 174
17.575155258179 26.605886459351 7.743003845215 61 61 61
17.599061965942 26.574993133545 8.792999267578 96 96 96
17.583202362061 26.590381622314 8.794998168945 168 168 168
17.567344665527 26.605768203735 8.801002502441 174 174 174
17.567110061646 26.621393203735 8.820999145508 164 164 164
17.551017761230 26.652404785156 8.835998535156 106 106 106
17.543205261230 26.652288436890 9.170997619629 44 44 44
17.527111053467 26.683298110962 9.183998107910 137 137 137
17.518829345703 26.714427947998 9.183998107910 140 140 140
17.621263504028 26.137777328491 7.708999633789 98 98 98
17.621028900146 26.153400421143 7.709999084473 167 167 167
17.605171203613 26.168788909912 7.705001831055 181 181 181
17.589311599731 26.184177398682 7.707000732422 155 155 155
17.605640411377 26.137542724609 8.558998107910 106 106 106
17.589782714844 26.152931213379 8.560997009277 162 162 162
17.589548110962 26.168554306030 8.583000183105 175 175 175
17.565876007080 26.183824539185 8.586997985840 165 165 165
17.557596206665 26.214954376221 8.592002868652 130 130 130
17.549783706665 26.214838027954 9.178001403809 122 122 122
17.525878906250 26.245731353760 9.178001403809 152 152 152
17.517597198486 26.276859283447 9.191001892090 45 45 45
17.627372741699 25.731573104858 7.680000305176 82 82 82
17.627138137817 25.747196197510 7.687004089355 164 164 164
17.611278533936 25.762584686279 7.688003540039 185 185 185
17.595420837402 25.777975082397 7.695999145508 156 156 156
17.619560241699 25.731454849243 8.323997497559 106 106 106
17.611515045166 25.746961593628 8.331001281738 169 169 169
17.595655441284 25.762350082397 8.334999084473 180 180 180
17.579797744751 25.777738571167 8.350997924805 176 176 176
