20.833488464355 14.440624237061 48.176002502441 163 163 163
20.833488464355 14.440624237061 48.131004333496 163 163 163
20.833488464355 14.440624237061 48.084999084473 166 166 166
20.833488464355 14.440624237061 48.038002014160 166 166 166
20.833488464355 14.440624237061 47.991996765137 165 165 165
20.833488464355 14.440624237061 47.946006774902 166 166 166
20.833488464355 14.440624237061 47.900001525879 167 167 167
20.833488464355 14.440624237061 47.853004455566 168 168 168
20.833488464355 14.440624237061 47.808006286621 161 161 161
20.832904815674 14.448415756226 47.760002136230 167 167 167
20.833488464355 14.440624237061 47.715003967285 164 164 164
20.832904815674 14.448415756226 47.666007995605 161 161 161
20.832904815674 14.448415756226 47.621009826660 164 164 164
20.832904815674 14.448415756226 47.575996398926 165 165 165
20.832904815674 14.448415756226 47.530006408691 164 164 164
20.832904815674 14.448415756226 47.480003356934 163 163 163
20.832321166992 14.456206321716 47.433998107910 165 165 165
20.832321166992 14.456206321716 47.387001037598 163 163 163
20.832904815674 14.448415756226 47.338996887207 160 160 160
20.832321166992 14.456206321716 47.293998718262 162 162 162
20.832904815674 14.448415756226 47.243995666504 159 159 159
20.832321166992 14.456206321716 47.196998596191 156 156 156
20.832904815674 14.448415756226 47.148002624512 158 158 158
20.832904815674 14.448415756226 47.099998474121 162 162 162
20.832904815674 14.448415756226 47.052009582520 163 163 163
20.847902297974 14.457373619080 47.002006530762 153 153 153
20.847902297974 14.457373619080 46.956001281738 153 153 153
20.847902297974 14.457373619080 46.907005310059 155 155 155
20.832321166992 14.456206321716 46.861000061035 153 153 153
20.831737518311 14.463996887207 46.810997009277 156 156 156
20.799991607666 14.469451904297 46.773002624512 156 156 156
20.924858093262 8.203449249268 46.638008117676 173 173 173
20.863115310669 8.190987586975 46.620002746582 177 177 177
20.887676239014 8.490535736084 51.590003967285 182 182 182
20.935003280640 8.486248016357 51.558998107910 91 91 91
20.819511413574 8.563771247864 46.638008117676 170 170 170
20.907562255859 8.852408409119 51.631004333496 24 24 24
20.906394958496 8.867989540100 51.579002380371 158 158 158
20.922559738159 8.861366271973 51.543006896973 55 55 55
20.878953933716 9.234150886536 51.612007141113 55 55 55
20.910116195679 9.236486434937 51.573005676270 152 152 152
20.913253784180 9.612772941589 51.609001159668 77 77 77
20.913253784180 9.612772941589 51.568000793457 163 163 163
20.958831787109 9.631856918335 51.278007507324 154 154 154
20.900226593018 9.995682716370 51.603004455566 105 105 105
20.900226593018 9.995682716370 51.564002990723 160 160 160
20.962553024292 10.000353813171 51.495002746582 161 161 161
20.962553024292 10.000353813171 51.450996398926 187 187 187
20.962553024292 10.000353813171 51.405998229980 202 202 202
20.946388244629 10.006976127625 51.359001159668 204 204 204
20.962553024292 10.000353813171 51.317008972168 208 208 208
20.962553024292 10.000353813171 51.274009704590 147 147 147
20.887201309204 10.378591537476 51.597007751465 129 129 129
20.887201309204 10.378591537476 51.552009582520 139 139 139
20.965692520142 10.376639366150 51.530006408691 17 17 17
20.965692520142 10.376639366150 51.487998962402 170 170 170
20.965692520142 10.376639366150 51.440010070801 195 195 195
20.965692520142 10.376639366150 51.394996643066 205 205 205
20.965692520142 10.376639366150 51.353004455566 173 173 173
20.965692520142 10.376639366150 51.308006286621 203 203 203
20.965692520142 10.376639366150 51.265007019043 131 131 131
20.906505584717 10.748255729675 51.586997985840 152 152 152
20.922670364380 10.741633415222 51.554008483887 112 112 112
20.952665328979 10.759550094604 51.517997741699 102 102 102
20.952665328979 10.759550094604 51.474998474121 184 184 184
20.969413757324 10.745136260986 51.435005187988 200 200 200
20.952665328979 10.759550094604 51.388999938965 198 198 198
20.952665328979 10.759550094604 51.345008850098 183 183 183
20.952665328979 10.759550094604 51.299995422363 193 193 193
20.984411239624 10.754094123840 51.260002136230 99 99 99
20.894062042236 11.123374938965 51.577995300293 154 154 154
20.941389083862 11.119087219238 51.551002502441 79 79 79
20.956386566162 11.128045082092 51.513008117676 142 142 142
20.956386566162 11.128045082092 51.469001770020 197 197 197
20.971384048462 11.137003898621 51.428001403809 202 202 202
20.956386566162 11.128045082092 51.377998352051 203 203 203
20.971384048462 11.137003898621 51.334999084473 189 189 189
20.955802917480 11.135836601257 51.289009094238 181 181 181
20.986967086792 11.138171195984 51.250007629395 73 73 73
20.896032333374 11.515243530273 51.622001647949 26 26 26
20.912780761719 11.500829696655 51.577003479004 155 155 155
20.927778244019 11.509787559509 51.539009094238 42 42 42
20.958942413330 11.512123107910 51.508003234863 159 159 159
20.958942413330 11.512123107910 51.463996887207 185 185 185
20.958358764648 11.519913673401 51.418998718262 178 178 178
20.958358764648 11.519913673401 51.374000549316 183 183 183
20.958942413330 11.512123107910 51.327003479004 200 200 200
20.958358764648 11.519913673401 51.286003112793 173 173 173
20.899753570557 11.883738517761 51.616004943848 70 70 70
20.899753570557 11.883738517761 51.569007873535 160 160 160
20.962080001831 11.888409614563 51.504997253418 147 147 147
20.962080001831 11.888409614563 51.459007263184 205 205 205
20.961496353149 11.896200180054 51.416007995605 210 210 210
20.962080001831 11.888409614563 51.368003845215 206 206 206
20.962080001831 11.888409614563 51.323997497559 207 207 207
20.961496353149 11.896200180054 51.282005310059 159 159 159
20.886726379395 12.266649246216 51.601997375488 107 107 107
20.902893066406 12.260025978088 51.564002990723 143 143 143
20.906032562256 12.636312484741 51.603996276855 121 121 121
20.937778472900 12.630857467651 51.564002990723 68 68 68
20.909753799438 13.004808425903 51.588996887207 154 154 154
20.912307739258 13.388886451721 51.627998352051 58 58 58
20.911724090576 13.396677017212 51.586006164551 126 126 126
20.914861679077 13.772963523865 51.627998352051 102 102 102
20.930442810059 13.774130821228 51.586006164551 122 122 122
20.916831970215 14.164831161499 51.621009826660 143 143 143
20.948579788208 14.159376144409 51.590003967285 23 23 23
20.857828140259 14.324932098389 46.694999694824 164 164 164
20.917818069458 14.360765457153 46.724006652832 164 164 164
20.917818069458 14.360765457153 46.773002624512 154 154 154
20.933984756470 14.354142189026 46.819999694824 158 158 158
20.933399200439 14.361932754517 46.868003845215 152 152 152
20.932815551758 14.369724273682 46.914009094238 156 156 156
20.933399200439 14.361932754517 46.963005065918 155 155 155
20.947813034058 14.378682136536 47.008995056152 176 176 176
20.932815551758 14.369724273682 47.056999206543 183 183 183
20.963394165039 14.379850387573 47.103004455566 196 196 196
20.963977813721 14.372059822083 47.148002624512 232 232 232
20.978391647339 14.388808250427 47.190010070801 252 252 252
20.993389129639 14.397767066956 47.235008239746 3 3 3
20.932815551758 14.369724273682 47.295997619629 150 150 150
20.932815551758 14.369724273682 47.344001770020 158 158 158
20.964561462402 14.364268302917 47.390007019043 144 144 144
20.932815551758 14.369724273682 47.437995910645 152 152 152
20.964561462402 14.364268302917 47.485008239746 152 152 152
20.964561462402 14.364268302917 47.530998229980 133 133 133
20.949565887451 14.355309486389 47.580009460449 134 134 134
20.964561462402 14.364268302917 47.624000549316 120 120 120
20.964561462402 14.364268302917 47.670997619629 115 115 115
20.964561462402 14.364268302917 47.718009948730 114 114 114
20.964561462402 14.364268302917 47.763999938965 103 103 103
20.963977813721 14.372059822083 47.810005187988 101 101 101
20.995140075684 14.374395370483 47.855003356934 91 91 91
20.964561462402 14.364268302917 47.903999328613 77 77 77
20.980142593384 14.365435600281 47.948997497559 50 50 50
20.995140075684 14.374395370483 47.993995666504 54 54 54
20.995140075684 14.374395370483 48.039009094238 45 45 45
20.995140075684 14.374395370483 48.086006164551 28 28 28
21.089797973633 14.365818977356 51.592002868652 16 16 16
21.029222488403 14.337777137756 51.629997253418 106 106 106
20.940406799316 14.268445014954 51.637001037598 135 135 135
20.965511322021 13.933446884155 51.609001159668 101 101 101
20.935514450073 13.915530204773 51.650001525879 98 98 98
20.930625915527 13.562615394592 51.612998962402 135 135 135
20.955730438232 13.227618217468 51.586997985840 107 107 107
20.925151824951 13.217492103577 51.629005432129 92 92 92
20.935844421387 12.865744590759 51.596000671387 147 147 147
20.975362777710 12.547495841980 51.573997497559 27 27 27
20.945951461792 12.521788597107 51.610008239746 110 110 110
20.939893722534 12.184454917908 51.577003479004 117 117 117
20.926065444946 12.159914970398 51.612998962402 117 117 117
20.994993209839 11.867373466492 51.263999938965 59 59 59
20.994993209839 11.867373466492 51.312004089355 188 188 188
20.994993209839 11.867373466492 51.359001159668 210 210 210
20.995578765869 11.859582901001 51.407997131348 208 208 208
20.995578765869 11.859582901001 51.455009460449 211 211 211
20.995578765869 11.859582901001 51.506004333496 156 156 156
20.935588836670 11.823748588562 51.582008361816 151 151 151
20.936756134033 11.808167457581 51.625999450684 38 38 38
20.989521026611 11.522249221802 51.278999328613 113 113 113
21.020683288574 11.524584770203 51.330009460449 204 204 204
21.005685806274 11.515625953674 51.377006530762 178 178 178
21.005685806274 11.515625953674 51.426002502441 173 173 173
20.990104675293 11.514458656311 51.471000671387 185 185 185
20.975107192993 11.505500793457 51.517005920410 150 150 150
20.960693359375 11.488750457764 51.556007385254 44 44 44
20.931282043457 11.463044166565 51.590003967285 147 147 147
21.000211715698 11.170502662659 51.293998718262 156 156 156
21.000211715698 11.170502662659 51.343009948730 197 197 197
21.000211715698 11.170502662659 51.390998840332 174 174 174
20.985799789429 11.153752326965 51.435005187988 171 171 171
21.000797271729 11.162711143494 51.487007141113 184 184 184
20.985799789429 11.153752326965 51.530998229980 107 107 107
20.955802917480 11.135836601257 51.567008972168 119 119 119
20.926975250244 11.102338790894 51.601997375488 118 118 118
21.010320663452 10.826544761658 51.263008117676 33 33 33
20.979156494141 10.824210166931 51.305000305176 181 181 181
20.979156494141 10.824210166931 51.353996276855 204 204 204
20.979740142822 10.816418647766 51.402000427246 171 171 171
20.979740142822 10.816418647766 51.450996398926 183 183 183
20.980323791504 10.808629035950 51.497001647949 165 165 165
20.952081680298 10.767340660095 51.575996398926 152 152 152
20.919750213623 10.780586242676 51.620002746582 90 90 90
21.005428314209 10.473629951477 51.267005920410 70 70 70
21.005428314209 10.473629951477 51.315010070801 193 193 193
21.006011962891 10.465840339661 51.362007141113 140 140 140
21.005428314209 10.473629951477 51.411994934082 186 186 186
21.005428314209 10.473629951477 51.461997985840 184 184 184
20.991016387939 10.456881523132 51.504997253418 157 157 157
20.946607589722 10.422216415405 51.583000183105 161 161 161
20.946607589722 10.422216415405 51.631996154785 47 47 47
21.000539779663 10.120716094971 51.280998229980 126 126 126
21.000539779663 10.120716094971 51.330009460449 204 204 204
21.000539779663 10.120716094971 51.375999450684 196 196 196
21.000539779663 10.120716094971 51.426002502441 160 160 160
21.000539779663 10.120716094971 51.472007751465 187 187 187
21.000539779663 10.120716094971 51.521003723145 133 133 133
20.971128463745 10.095008850098 51.556999206543 50 50 50
20.925552368164 10.075924873352 51.588005065918 156 156 156
21.010063171387 9.784549713135 51.256996154785 13 13 13
20.995649337769 9.767801284790 51.297996520996 156 156 156
20.995065689087 9.775591850281 51.349006652832 185 185 185
20.995649337769 9.767801284790 51.394996643066 184 184 184
20.995649337769 9.767801284790 51.441001892090 175 175 175
20.995649337769 9.767801284790 51.489006042480 153 153 153
20.996234893799 9.760010719299 51.534996032715 144 144 144
20.950658798218 9.740926742554 51.569007873535 145 145 145
20.936244964600 9.724177360535 51.611000061035 117 117 117
20.930185317993 9.386843681335 51.580009460449 148 148 148
20.915771484375 9.370094299316 51.620002746582 80 80 80
20.940877914429 9.035096168518 51.593009948730 154 154 154
20.941461563110 9.027305603027 51.638999938965 13 13 13
20.965982437134 8.700098037720 51.560997009277 13 13 13
20.919822692871 8.688804626465 51.597999572754 157 157 157
20.729125976563 8.306296348572 46.681999206543 194 194 194
20.954086303711 8.440670967102 46.644004821777 183 183 183
20.954086303711 8.440670967102 46.690010070801 178 178 178
20.968500137329 8.457420349121 46.728996276855 179 179 179
20.999662399292 8.459755897522 46.773002624512 179 179 179
20.999662399292 8.459755897522 46.818000793457 207 207 207
20.969667434692 8.441839218140 46.868003845215 219 219 219
20.939088821411 8.431713104248 46.922996520996 146 146 146
20.984664916992 8.450797080994 46.957008361816 233 233 233
20.939088821411 8.431713104248 47.013008117676 139 139 139
20.939088821411 8.431713104248 47.056999206543 139 139 139
20.939088821411 8.431713104248 47.103996276855 140 140 140
20.939674377441 8.423922538757 47.152000427246 140 140 140
20.939674377441 8.423922538757 47.196006774902 146 146 146
20.939088821411 8.431713104248 47.239997863770 144 144 144
20.925260543823 8.407174110413 47.289009094238 136 136 136
20.925260543823 8.407174110413 47.333000183105 140 140 140
20.925260543823 8.407174110413 47.377006530762 138 138 138
20.925260543823 8.407174110413 47.422004699707 143 143 143
20.925260543823 8.407174110413 47.465003967285 145 145 145
20.925260543823 8.407174110413 47.510002136230 143 143 143
20.925260543823 8.407174110413 47.555000305176 148 148 148
20.925260543823 8.407174110413 47.599006652832 155 155 155
20.925260543823 8.407174110413 47.640998840332 159 159 159
20.925260543823 8.407174110413 47.685997009277 155 155 155
20.925260543823 8.407174110413 47.728996276855 162 162 162
20.910263061523 8.398215293884 47.773002624512 168 168 168
20.925260543823 8.407174110413 47.816001892090 137 137 137
20.910263061523 8.398215293884 47.860008239746 146 146 146
20.925260543823 8.407174110413 47.903007507324 164 164 164
20.910263061523 8.398215293884 47.946006774902 175 175 175
20.941425323486 8.400550842285 47.989006042480 179 179 179
20.942008972168 8.392760276794 48.032005310059 184 184 184
20.942008972168 8.392760276794 48.073997497559 184 184 184
20.910846710205 8.390424728394 48.118003845215 182 182 182
20.941425323486 8.400550842285 48.159996032715 185 185 185
20.927011489868 8.383801460266 48.202995300293 185 185 185
20.942008972168 8.392760276794 48.245002746582 186 186 186
20.927011489868 8.383801460266 48.289009094238 183 183 183
20.927011489868 8.383801460266 48.331001281738 186 186 186
20.927011489868 8.383801460266 48.374000549316 190 190 190
20.942008972168 8.392760276794 48.416007995605 190 190 190
20.927011489868 8.383801460266 48.458000183105 189 189 189
20.927011489868 8.383801460266 48.500999450684 190 190 190
20.927011489868 8.383801460266 48.543998718262 188 188 188
20.927011489868 8.383801460266 48.586006164551 187 187 187
20.911430358887 8.382634162903 48.627998352051 186 186 186
20.911430358887 8.382634162903 48.670997619629 193 193 193
20.927011489868 8.383801460266 48.711997985840 193 193 193
20.911430358887 8.382634162903 48.754997253418 193 193 193
20.911430358887 8.382634162903 48.797004699707 190 190 190
20.911430358887 8.382634162903 48.838996887207 193 193 193
20.911430358887 8.382634162903 48.881004333496 194 194 194
20.912014007568 8.374843597412 48.924003601074 193 193 193
20.912597656250 8.367052078247 48.965995788574 188 188 188
20.912014007568 8.374843597412 49.008003234863 189 189 189
20.912014007568 8.374843597412 49.049995422363 191 191 191
20.912597656250 8.367052078247 49.092002868652 192 192 192
20.912597656250 8.367052078247 49.133995056152 193 193 193
20.912597656250 8.367052078247 49.176002502441 192 192 192
20.912597656250 8.367052078247 49.219001770020 191 191 191
20.912597656250 8.367052078247 49.261009216309 192 192 192
20.912597656250 8.367052078247 49.303001403809 192 192 192
20.912597656250 8.367052078247 49.345008850098 187 187 187
20.912597656250 8.367052078247 49.387001037598 190 190 190
20.912597656250 8.367052078247 49.429008483887 190 190 190
20.913181304932 8.359261512756 49.472007751465 188 188 188
20.913181304932 8.359261512756 49.513008117676 186 186 186
20.898183822632 8.350303649902 49.555000305176 191 191 191
20.898183822632 8.350303649902 49.597999572754 188 188 188
20.898183822632 8.350303649902 49.638999938965 190 190 190
20.883188247681 8.341344833374 49.681999206543 191 191 191
20.883188247681 8.341344833374 49.724006652832 191 191 191
20.883188247681 8.341344833374 49.765998840332 183 183 183
20.883188247681 8.341344833374 49.808998107910 185 185 185
20.883188247681 8.341344833374 49.849998474121 184 184 184
20.899353027344 8.334722518921 49.894004821777 187 187 187
20.883771896362 8.333554267883 49.935997009277 186 186 186
20.883771896362 8.333554267883 49.978996276855 183 183 183
20.899353027344 8.334722518921 50.023002624512 182 182 182
20.884355545044 8.325763702393 50.064002990723 182 182 182
20.883771896362 8.333554267883 50.107002258301 184 184 184
20.884355545044 8.325763702393 50.150001525879 188 188 188
20.884355545044 8.325763702393 50.192008972168 184 184 184
20.883771896362 8.333554267883 50.237998962402 183 183 183
20.883771896362 8.333554267883 50.280998229980 176 176 176
20.899353027344 8.334722518921 50.325996398926 184 184 184
20.883771896362 8.333554267883 50.368003845215 192 192 192
20.884355545044 8.325763702393 50.409996032715 188 188 188
20.883771896362 8.333554267883 50.455009460449 186 186 186
20.883771896362 8.333554267883 50.500007629395 190 190 190
20.883771896362 8.333554267883 50.543998718262 189 189 189
20.883771896362 8.333554267883 50.586997985840 187 187 187
20.883771896362 8.333554267883 50.631996154785 181 181 181
20.899353027344 8.334722518921 50.678001403809 183 183 183
20.884355545044 8.325763702393 50.720008850098 183 183 183
20.883771896362 8.333554267883 50.765007019043 188 188 188
20.900520324707 8.319141387939 50.810005187988 184 184 184
20.884355545044 8.325763702393 50.853004455566 179 179 179
20.884355545044 8.325763702393 50.898002624512 177 177 177
20.901103973389 8.311350822449 50.944007873535 189 189 189
20.900520324707 8.319141387939 50.991004943848 184 184 184
20.886106491089 8.302392005920 51.032997131348 179 179 179
20.886106491089 8.302392005920 51.079002380371 181 181 181
20.901103973389 8.311350822449 51.125007629395 184 184 184
20.901103973389 8.311350822449 51.172996520996 177 177 177
20.886106491089 8.302392005920 51.215995788574 185 185 185
20.886106491089 8.302392005920 51.261009216309 183 183 183
20.886106491089 8.302392005920 51.308006286621 179 179 179
20.886106491089 8.302392005920 51.353996276855 173 173 173
20.886106491089 8.302392005920 51.403007507324 176 176 176
20.886106491089 8.302392005920 51.450996398926 186 186 186
20.886106491089 8.302392005920 51.496009826660 163 163 163
20.886106491089 8.302392005920 51.545005798340 169 169 169
20.886106491089 8.302392005920 51.593009948730 167 167 167
20.886106491089 8.302392005920 51.638999938965 144 144 144
20.886106491089 8.302392005920 51.685005187988 169 169 169
20.886690139771 8.294601440430 51.730995178223 172 172 172
20.886106491089 8.302392005920 51.780998229980 175 175 175
20.886106491089 8.302392005920 51.830009460449 172 172 172
20.886106491089 8.302392005920 51.877998352051 174 174 174
20.886690139771 8.294601440430 51.924003601074 174 174 174
20.886690139771 8.294601440430 51.974998474121 178 178 178
20.886690139771 8.294601440430 52.021995544434 178 178 178
20.886690139771 8.294601440430 52.073005676270 176 176 176
20.886690139771 8.294601440430 52.122001647949 169 169 169
20.887273788452 8.286810874939 52.170005798340 172 172 172
20.872276306152 8.277852058411 52.217002868652 168 168 168
20.872276306152 8.277852058411 52.269004821777 173 173 173
20.887857437134 8.279019355774 52.321006774902 173 173 173
20.872276306152 8.277852058411 52.368995666504 178 178 178
20.888441085815 8.271228790283 52.420997619629 96 96 96
20.865234375000 14.435168266296 52.411003112793 116 116 116
20.896982192993 14.429713249207 52.366996765137 180 180 180
20.896982192993 14.429713249207 52.314002990723 171 171 171
20.896396636963 14.437503814697 52.271003723145 169 169 169
20.865234375000 14.435168266296 52.211997985840 179 179 179
20.896982192993 14.429713249207 52.168006896973 172 172 172
20.896982192993 14.429713249207 52.116996765137 176 176 176
20.896982192993 14.429713249207 52.069007873535 171 171 171
20.896396636963 14.437503814697 52.021995544434 180 180 180
20.896982192993 14.429713249207 51.971000671387 175 175 175
20.896982192993 14.429713249207 51.920997619629 174 174 174
20.896396636963 14.437503814697 51.877006530762 175 175 175
20.896982192993 14.429713249207 51.825004577637 164 164 164
20.896982192993 14.429713249207 51.778999328613 167 167 167
20.896982192993 14.429713249207 51.733009338379 174 174 174
20.896982192993 14.429713249207 51.683006286621 158 158 158
20.865234375000 14.435168266296 51.633995056152 157 157 157
20.896982192993 14.429713249207 51.590003967285 178 178 178
20.896982192993 14.429713249207 51.541999816895 171 171 171
20.896982192993 14.429713249207 51.496009826660 172 172 172
20.865234375000 14.435168266296 51.448005676270 175 175 175
20.896396636963 14.437503814697 51.409004211426 177 177 177
20.896982192993 14.429713249207 51.360008239746 170 170 170
20.896982192993 14.429713249207 51.315010070801 174 174 174
20.865234375000 14.435168266296 51.265998840332 176 176 176
20.865234375000 14.435168266296 51.222999572754 178 178 178
20.896982192993 14.429713249207 51.179008483887 176 176 176
20.896982192993 14.429713249207 51.136009216309 177 177 177
20.865234375000 14.435168266296 51.090003967285 172 172 172
20.865234375000 14.435168266296 51.043998718262 174 174 174
20.896982192993 14.429713249207 51.002006530762 169 169 169
20.896982192993 14.429713249207 50.958000183105 165 165 165
20.896982192993 14.429713249207 50.916007995605 174 174 174
20.865234375000 14.435168266296 50.868995666504 166 166 166
20.865234375000 14.435168266296 50.825996398926 165 165 165
20.865234375000 14.435168266296 50.784004211426 171 171 171
20.865234375000 14.435168266296 50.739006042480 168 168 168
20.865234375000 14.435168266296 50.698005676270 175 175 175
20.865234375000 14.435168266296 50.655006408691 173 173 173
20.865234375000 14.435168266296 50.612998962402 174 174 174
20.865234375000 14.435168266296 50.569007873535 176 176 176
20.865234375000 14.435168266296 50.528007507324 176 176 176
20.865234375000 14.435168266296 50.484001159668 170 170 170
20.865234375000 14.435168266296 50.442008972168 172 172 172
20.865234375000 14.435168266296 50.402000427246 173 173 173
20.865234375000 14.435168266296 50.359001159668 172 172 172
20.865234375000 14.435168266296 50.318000793457 173 173 173
20.865819931030 14.427378654480 50.275001525879 181 181 181
20.865819931030 14.427378654480 50.233009338379 176 176 176
20.865819931030 14.427378654480 50.192008972168 177 177 177
20.865234375000 14.435168266296 50.152000427246 175 175 175
20.865234375000 14.435168266296 50.112007141113 176 176 176
20.865819931030 14.427378654480 50.069007873535 176 176 176
20.865819931030 14.427378654480 50.028007507324 176 176 176
20.896982192993 14.429713249207 49.989997863770 171 171 171
20.865234375000 14.435168266296 49.948005676270 173 173 173
20.896982192993 14.429713249207 49.909004211426 177 177 177
20.865819931030 14.427378654480 49.866004943848 174 174 174
20.865819931030 14.427378654480 49.825004577637 178 178 178
20.865819931030 14.427378654480 49.784996032715 177 177 177
20.865819931030 14.427378654480 49.743995666504 174 174 174
20.865234375000 14.435168266296 49.705009460449 179 179 179
20.865819931030 14.427378654480 49.665000915527 177 177 177
20.865234375000 14.435168266296 49.625999450684 176 176 176
20.865819931030 14.427378654480 49.584999084473 174 174 174
20.865819931030 14.427378654480 49.543998718262 177 177 177
20.865819931030 14.427378654480 49.504005432129 173 173 173
20.865819931030 14.427378654480 49.465003967285 171 171 171
20.865819931030 14.427378654480 49.424003601074 175 175 175
20.865819931030 14.427378654480 49.385002136230 173 173 173
20.896982192993 14.429713249207 49.346000671387 171 171 171
20.865234375000 14.435168266296 49.306007385254 172 172 172
20.865819931030 14.427378654480 49.267005920410 178 178 178
20.865819931030 14.427378654480 49.226997375488 179 179 179
20.865234375000 14.435168266296 49.187004089355 176 176 176
20.865234375000 14.435168266296 49.148002624512 179 179 179
20.865234375000 14.435168266296 49.109001159668 174 174 174
20.865819931030 14.427378654480 49.068000793457 178 178 178
20.865819931030 14.427378654480 49.028999328613 175 175 175
20.865819931030 14.427378654480 48.989997863770 177 177 177
20.865819931030 14.427378654480 48.950004577637 178 178 178
20.865819931030 14.427378654480 48.911003112793 175 175 175
20.865234375000 14.435168266296 48.872001647949 179 179 179
20.866403579712 14.419587135315 48.832008361816 174 174 174
20.865819931030 14.427378654480 48.793006896973 177 177 177
20.865819931030 14.427378654480 48.754005432129 174 174 174
20.865819931030 14.427378654480 48.713996887207 177 177 177
20.865234375000 14.435168266296 48.674995422363 176 176 176
20.865819931030 14.427378654480 48.635002136230 175 175 175
20.865819931030 14.427378654480 48.596000671387 182 182 182
20.866403579712 14.419587135315 48.556999206543 175 175 175
20.865819931030 14.427378654480 48.517005920410 180 180 180
20.866403579712 14.419587135315 48.478004455566 179 179 179
20.866403579712 14.419587135315 48.439002990723 180 180 180
20.865234375000 14.435168266296 48.399009704590 180 180 180
20.865819931030 14.427378654480 48.360008239746 180 180 180
20.865819931030 14.427378654480 48.319999694824 182 182 182
20.866403579712 14.419587135315 48.280998229980 186 186 186
20.865819931030 14.427378654480 48.241004943848 178 178 178
20.865819931030 14.427378654480 48.200996398926 174 174 174
20.865819931030 14.427378654480 48.161994934082 170 170 170
20.866403579712 14.419587135315 48.123008728027 176 176 176
20.866403579712 14.419587135315 48.083000183105 173 173 173
20.866403579712 14.419587135315 48.043006896973 176 176 176
20.865819931030 14.427378654480 48.002998352051 170 170 170
20.865819931030 14.427378654480 47.963005065918 173 173 173
20.866403579712 14.419587135315 47.924003601074 179 179 179
20.866403579712 14.419587135315 47.883995056152 187 187 187
20.865819931030 14.427378654480 47.844001770020 174 174 174
20.866403579712 14.419587135315 47.804008483887 168 168 168
20.865819931030 14.427378654480 47.763008117676 169 169 169
20.866403579712 14.419587135315 47.724006652832 173 173 173
20.866403579712 14.419587135315 47.685005187988 171 171 171
20.866403579712 14.419587135315 47.644004821777 177 177 177
20.866403579712 14.419587135315 47.603996276855 175 175 175
20.866403579712 14.419587135315 47.564002990723 182 182 182
20.866403579712 14.419587135315 47.523002624512 178 178 178
20.866403579712 14.419587135315 47.482002258301 178 178 178
20.866987228394 14.411797523499 47.442008972168 187 187 187
20.866403579712 14.419587135315 47.401008605957 175 175 175
20.866987228394 14.411797523499 47.361000061035 172 172 172
20.866403579712 14.419587135315 47.319007873535 171 171 171
20.866987228394 14.411797523499 47.278999328613 174 174 174
20.866403579712 14.419587135315 47.237007141113 171 171 171
20.850238800049 14.426210403442 47.196998596191 171 171 171
20.866403579712 14.419587135315 47.153999328613 172 172 172
20.866987228394 14.411797523499 47.114006042480 168 168 168
20.866987228394 14.411797523499 47.071998596191 173 173 173
20.866987228394 14.411797523499 47.030998229980 178 178 178
20.866403579712 14.419587135315 46.987998962402 165 165 165
20.850238800049 14.426210403442 46.948997497559 157 157 157
20.866987228394 14.411797523499 46.905006408691 160 160 160
20.866987228394 14.411797523499 46.862007141113 162 162 162
20.834657669067 14.425043106079 46.823005676270 156 156 156
20.866987228394 14.411797523499 46.777000427246 162 162 162
20.835241317749 14.417252540588 46.741996765137 170 170 170
20.921503067017 14.102505683899 51.661003112793 61 61 61
20.937669754028 14.095883369446 51.620002746582 142 142 142
20.946607589722 13.767507553101 51.631996154785 136 136 136
20.962774276733 13.760885238647 51.593009948730 23 23 23
20.924385070801 13.436797142029 51.636009216309 92 92 92
20.939966201782 13.437964439392 51.597007751465 120 120 120
20.933326721191 13.108423233032 51.607002258301 144 144 144
20.927268981934 12.771089553833 51.616996765137 113 113 113
20.941682815552 12.787837982178 51.579002380371 94 94 94
20.920627593994 12.441546440125 51.627998352051 88 88 88
20.936208724976 12.442713737488 51.586997985840 151 151 151
20.913986206055 12.112003326416 51.633003234863 63 63 63
20.945732116699 12.106548309326 51.594001770020 160 160 160
20.976894378662 12.108883857727 51.295005798340 117 117 117
20.940259933472 11.761424064636 51.597007751465 159 159 159
20.955257415771 11.770382881165 51.560997009277 56 56 56
20.985836029053 11.780508995056 51.528007507324 145 145 145
21.002584457397 11.766095161438 51.487007141113 181 181 181
20.985836029053 11.780508995056 51.440010070801 184 184 184
21.002584457397 11.766095161438 51.396995544434 188 188 188
21.002584457397 11.766095161438 51.351997375488 179 179 179
21.002000808716 11.773885726929 51.308006286621 174 174 174
21.002000808716 11.773885726929 51.265007019043 27 27 27
20.917451858521 11.438504219055 51.603004455566 134 134 134
20.933032989502 11.439671516418 51.565010070801 113 113 113
20.995359420776 11.444342613220 51.534004211426 96 96 96
20.995359420776 11.444342613220 51.493995666504 172 172 172
20.995943069458 11.436552047729 51.455009460449 29 29 29
20.995359420776 11.444342613220 51.403999328613 160 160 160
20.995359420776 11.444342613220 51.359001159668 189 189 189
20.995359420776 11.444342613220 51.312004089355 193 193 193
20.996526718140 11.428761482239 51.271995544434 89 89 89
20.926975250244 11.102338790894 51.611000061035 101 101 101
20.958137512207 11.104674339294 51.573997497559 153 153 153
20.988718032837 11.114799499512 51.506996154785 171 171 171
20.988718032837 11.114799499512 51.463996887207 197 197 197
20.989301681519 11.107008934021 51.416007995605 191 191 191
21.004882812500 11.108177185059 51.375999450684 151 151 151
20.989301681519 11.107008934021 51.325996398926 204 204 204
20.988718032837 11.114799499512 51.284004211426 155 155 155
20.920333862305 10.772795677185 51.624000549316 67 67 67
20.919750213623 10.780586242676 51.584007263184 162 162 162
20.983827590942 10.761885643005 51.513008117676 168 168 168
20.982658386230 10.777466773987 51.467002868652 191 191 191
20.983243942261 10.769675254822 51.427009582520 184 184 184
20.983827590942 10.761885643005 51.379005432129 182 182 182
20.983243942261 10.769675254822 51.336006164551 199 199 199
20.998239517212 10.778634071350 51.295005798340 163 163 163
20.929859161377 10.436629295349 51.631004333496 39 39 39
20.929859161377 10.436629295349 51.590003967285 164 164 164
20.977186203003 10.432342529297 51.556007385254 34 34 34
20.992183685303 10.441300392151 51.523002624512 158 158 158
20.992183685303 10.441300392151 51.480995178223 184 184 184
20.992183685303 10.441300392151 51.431999206543 119 119 119
20.992183685303 10.441300392151 51.394004821777 149 149 149
20.992183685303 10.441300392151 51.343009948730 206 206 206
20.992183685303 10.441300392151 51.304008483887 164 164 164
20.939382553101 10.100463867188 51.594001770020 159 159 159
20.971128463745 10.095008850098 51.564002990723 70 70 70
20.970544815063 10.102799415588 51.523002624512 117 117 117
20.970544815063 10.102799415588 51.480995178223 198 198 198
20.970544815063 10.102799415588 51.435005187988 191 191 191
20.986709594727 10.096176147461 51.394004821777 123 123 123
20.986709594727 10.096176147461 51.351005554199 188 188 188
20.986709594727 10.096176147461 51.306999206543 177 177 177
21.001707077026 10.105134963989 51.267005920410 50 50 50
20.917158126831 9.769753456116 51.599006652832 136 136 136
20.933324813843 9.763130187988 51.560997009277 145 145 145
20.995649337769 9.767801284790 51.541999816895 158 158 158
20.995649337769 9.767801284790 51.493995666504 162 162 162
20.995649337769 9.767801284790 51.448997497559 167 167 167
20.995649337769 9.767801284790 51.405006408691 171 171 171
20.995649337769 9.767801284790 51.361000061035 169 169 169
20.996234893799 9.760010719299 51.316001892090 160 160 160
20.963903427124 9.773256301880 51.269996643066 110 110 110
20.911102294922 9.432419776917 51.611000061035 138 138 138
20.942264556885 9.434755325317 51.575996398926 147 147 147
20.920625686646 9.096254348755 51.625999450684 94 94 94
20.920625686646 9.096254348755 51.584007263184 156 156 156
20.913400650024 8.774501800537 51.631996154785 36 36 36
20.945730209351 8.761256217957 51.594001770020 156 156 156
20.960727691650 8.770214080811 51.560005187988 39 39 39
20.939088821411 8.431713104248 52.402000427246 23 23 23
20.844432830811 8.440287590027 51.651008605957 20 20 20
20.845016479492 8.432497978210 51.612998962402 105 105 105
20.923509597778 8.430544853210 51.596000671387 142 142 142
20.970251083374 8.434048652649 51.569007873535 116 116 116
20.938505172729 8.439503669739 51.508995056152 59 59 59
20.923509597778 8.430544853210 51.463996887207 59 59 59
20.938505172729 8.439503669739 51.422996520996 64 64 64
20.939088821411 8.431713104248 51.383995056152 61 61 61
20.938505172729 8.439503669739 51.334007263184 59 59 59
20.939088821411 8.431713104248 51.297004699707 60 60 60
20.939088821411 8.431713104248 51.252006530762 61 61 61
20.938505172729 8.439503669739 51.208000183105 51 51 51
20.939088821411 8.431713104248 51.166999816895 50 50 50
20.938505172729 8.439503669739 51.124000549316 57 57 57
20.938505172729 8.439503669739 51.081001281738 50 50 50
20.939088821411 8.431713104248 51.043006896973 46 46 46
20.939088821411 8.431713104248 51.000999450684 44 44 44
20.939088821411 8.431713104248 50.959007263184 44 44 44
20.939088821411 8.431713104248 50.916999816895 54 54 54
20.939088821411 8.431713104248 50.875007629395 54 54 54
20.939088821411 8.431713104248 50.836997985840 54 54 54
20.939088821411 8.431713104248 50.793998718262 52 52 52
20.939088821411 8.431713104248 50.752006530762 37 37 37
20.970251083374 8.434048652649 50.717002868652 39 39 39
20.939088821411 8.431713104248 50.672996520996 31 31 31
20.939088821411 8.431713104248 50.631996154785 37 37 37
20.939088821411 8.431713104248 50.590995788574 39 39 39
20.939088821411 8.431713104248 50.549995422363 40 40 40
20.939088821411 8.431713104248 50.508995056152 32 32 32
20.970251083374 8.434048652649 50.474006652832 23 23 23
20.939088821411 8.431713104248 50.431007385254 23 23 23
20.939088821411 8.431713104248 50.349998474121 15 15 15
20.939088821411 8.431713104248 50.039009094238 35 35 35
20.939088821411 8.431713104248 50.000007629395 31 31 31
20.939088821411 8.431713104248 49.961006164551 32 32 32
20.939088821411 8.431713104248 49.922996520996 48 48 48
20.970251083374 8.434048652649 49.887001037598 75 75 75
20.939088821411 8.431713104248 49.845008850098 75 75 75
20.938505172729 8.439503669739 49.806007385254 82 82 82
20.939088821411 8.431713104248 49.771003723145 87 87 87
20.939088821411 8.431713104248 49.730003356934 96 96 96
20.939088821411 8.431713104248 49.693000793457 111 111 111
20.939088821411 8.431713104248 49.657005310059 112 112 112
20.939088821411 8.431713104248 49.618003845215 119 119 119
20.939088821411 8.431713104248 49.581001281738 122 122 122
20.939088821411 8.431713104248 49.543006896973 119 119 119
20.939088821411 8.431713104248 49.506004333496 120 120 120
20.970251083374 8.434048652649 49.469001770020 121 121 121
20.970251083374 8.434048652649 49.431007385254 122 122 122
20.939088821411 8.431713104248 49.392997741699 119 119 119
20.939088821411 8.431713104248 49.355003356934 110 110 110
20.939088821411 8.431713104248 49.318000793457 115 115 115
20.969667434692 8.441839218140 49.282005310059 119 119 119
20.939088821411 8.431713104248 49.243003845215 120 120 120
20.970251083374 8.434048652649 49.207008361816 119 119 119
20.969667434692 8.441839218140 49.170005798340 126 126 126
20.970251083374 8.434048652649 49.131004333496 125 125 125
20.970251083374 8.434048652649 49.095008850098 131 131 131
20.970251083374 8.434048652649 49.056999206543 139 139 139
20.970251083374 8.434048652649 49.019996643066 143 143 143
20.939088821411 8.431713104248 48.982002258301 139 139 139
20.970251083374 8.434048652649 48.944999694824 142 142 142
20.970251083374 8.434048652649 48.907997131348 155 155 155
20.970251083374 8.434048652649 48.871009826660 154 154 154
20.970251083374 8.434048652649 48.834007263184 157 157 157
20.939088821411 8.431713104248 48.797004699707 159 159 159
20.970251083374 8.434048652649 48.760002136230 165 165 165
20.970251083374 8.434048652649 48.722007751465 166 166 166
20.970251083374 8.434048652649 48.685005187988 169 169 169
20.939088821411 8.431713104248 48.648002624512 171 171 171
20.939088821411 8.431713104248 48.611000061035 170 170 170
20.939088821411 8.431713104248 48.573997497559 169 169 169
20.939088821411 8.431713104248 48.536994934082 171 171 171
20.939088821411 8.431713104248 48.500007629395 167 167 167
20.939088821411 8.431713104248 48.463005065918 172 172 172
20.970251083374 8.434048652649 48.424995422363 172 172 172
20.939088821411 8.431713104248 48.388999938965 175 175 175
20.939088821411 8.431713104248 48.351005554199 176 176 176
20.939088821411 8.431713104248 48.314002990723 173 173 173
20.939088821411 8.431713104248 48.277000427246 176 176 176
20.939088821411 8.431713104248 48.239997863770 178 178 178
20.939088821411 8.431713104248 48.202003479004 174 174 174
20.939088821411 8.431713104248 48.165000915527 176 176 176
20.939088821411 8.431713104248 48.129005432129 169 169 169
20.939088821411 8.431713104248 48.090995788574 171 171 171
20.939088821411 8.431713104248 48.053001403809 177 177 177
20.939088821411 8.431713104248 48.015007019043 171 171 171
20.970251083374 8.434048652649 47.976997375488 174 174 174
20.939088821411 8.431713104248 47.941001892090 174 174 174
20.939088821411 8.431713104248 47.903007507324 169 169 169
20.939088821411 8.431713104248 47.864997863770 176 176 176
20.939088821411 8.431713104248 47.827003479004 178 178 178
20.939088821411 8.431713104248 47.789009094238 179 179 179
20.970251083374 8.434048652649 47.750007629395 178 178 178
20.970836639404 8.426258087158 47.711997985840 181 181 181
20.939088821411 8.431713104248 47.674995422363 179 179 179
20.970251083374 8.434048652649 47.636009216309 178 178 178
20.970251083374 8.434048652649 47.597007751465 183 183 183
20.970251083374 8.434048652649 47.558998107910 181 181 181
20.970251083374 8.434048652649 47.521003723145 184 184 184
20.970251083374 8.434048652649 47.480995178223 184 184 184
20.939088821411 8.431713104248 47.444999694824 178 178 178
20.970251083374 8.434048652649 47.405006408691 183 183 183
20.970251083374 8.434048652649 47.364997863770 182 182 182
20.970251083374 8.434048652649 47.325996398926 180 180 180
20.939088821411 8.431713104248 47.290000915527 179 179 179
20.970251083374 8.434048652649 47.248008728027 175 175 175
20.970251083374 8.434048652649 47.209999084473 181 181 181
20.970251083374 8.434048652649 47.170997619629 174 174 174
20.970251083374 8.434048652649 47.129997253418 177 177 177
20.970251083374 8.434048652649 47.092002868652 178 178 178
20.970836639404 8.426258087158 47.054008483887 176 176 176
20.970251083374 8.434048652649 47.013008117676 181 181 181
20.970251083374 8.434048652649 46.972007751465 178 178 178
20.970251083374 8.434048652649 46.933006286621 181 181 181
20.970836639404 8.426258087158 46.894004821777 177 177 177
20.939088821411 8.431713104248 46.858009338379 175 175 175
20.970836639404 8.426258087158 46.814002990723 173 173 173
20.939088821411 8.431713104248 46.774009704590 170 170 170
20.970836639404 8.426258087158 46.734001159668 174 174 174
20.970836639404 8.426258087158 46.692008972168 175 175 175
20.939088821411 8.431713104248 46.655998229980 174 174 174
20.901651382446 14.367388725281 52.388999938965 134 134 134
20.901067733765 14.375179290771 52.338996887207 122 122 122
20.901651382446 14.367388725281 52.280998229980 113 113 113
20.901651382446 14.367388725281 52.228996276855 110 110 110
20.901651382446 14.367388725281 52.174003601074 113 113 113
20.901067733765 14.375179290771 52.125007629395 100 100 100
20.902235031128 14.359597206116 52.073997497559 100 100 100
20.901651382446 14.367388725281 52.017005920410 95 95 95
20.902235031128 14.359597206116 51.967002868652 83 83 83
20.933984756470 14.354142189026 51.922004699707 75 75 75
20.933984756470 14.354142189026 51.870002746582 50 50 50
20.902235031128 14.359597206116 51.812004089355 18 18 18
20.902235031128 14.359597206116 51.761009216309 12 12 12
20.869905471802 14.372843742371 51.694007873535 78 78 78
20.869905471802 14.372843742371 51.642005920410 110 110 110
20.933984756470 14.354142189026 51.614997863770 102 102 102
20.868738174438 14.388424873352 50.090995788574 192 192 192
20.836992263794 14.393880844116 50.043006896973 207 207 207
20.869905471802 14.372843742371 50.002006530762 15 15 15
20.836992263794 14.393880844116 49.536994934082 173 173 173
20.868738174438 14.388424873352 49.493995666504 220 220 220
20.869905471802 14.372843742371 47.566001892090 9 9 9
20.901651382446 14.367388725281 47.515007019043 28 28 28
20.870489120483 14.365054130554 47.470008850098 57 57 57
20.933984756470 14.354142189026 47.413002014160 141 141 141
21.032724380493 14.291031837463 47.338005065918 39 39 39
20.870489120483 14.365054130554 47.278999328613 109 109 109
20.967481613159 14.325315475464 47.209999084473 2 2 2
20.933984756470 14.354142189026 47.172996520996 197 197 197
20.902235031128 14.359597206116 47.127006530762 199 199 199
20.933984756470 14.354142189026 47.077995300293 199 199 199
20.902820587158 14.351806640625 47.030998229980 194 194 194
20.902820587158 14.351806640625 46.983009338379 191 191 191
20.772333145142 14.420372009277 46.974006652832 202 202 202
20.959089279175 14.019144058228 51.635002136230 140 140 140
20.936281204224 13.696225166321 51.646995544434 107 107 107
20.952445983887 13.689600944519 51.599998474121 83 83 83
20.944637298584 13.375639915466 51.612998962402 139 139 139
20.952993392944 13.055055618286 51.627998352051 134 134 134
20.952993392944 13.055055618286 51.580009460449 55 55 55
20.945184707642 12.741093635559 51.642005920410 55 55 55
20.961933135986 12.726680755615 51.595008850098 126 126 126
20.921211242676 12.433755874634 51.599006652832 149 149 149
20.945732116699 12.106548309326 51.612007141113 135 135 135
20.978647232056 12.085511207581 51.571998596191 70 70 70
20.994812011719 12.078887939453 51.332008361816 26 26 26
21.010976791382 12.072265625000 51.290000915527 145 145 145
20.939092636108 11.777005195618 51.629997253418 99 99 99
20.970254898071 11.779340744019 51.583000183105 135 135 135
21.003168106079 11.758304595947 51.547004699707 87 87 87
21.003168106079 11.758304595947 51.497001647949 180 180 180
21.003751754761 11.750513076782 51.450996398926 154 154 154
21.003168106079 11.758304595947 51.394996643066 157 157 157
21.003751754761 11.750513076782 51.351005554199 190 190 190
21.003751754761 11.750513076782 51.299995422363 144 144 144
20.931282043457 11.463044166565 51.640007019043 19 19 19
20.930112838745 11.478625297546 51.590003967285 147 147 147
20.996526718140 11.428761482239 51.515007019043 164 164 164
21.012107849121 11.429928779602 51.469001770020 52 52 52
20.995359420776 11.444342613220 51.411994934082 166 166 166
20.996526718140 11.428761482239 51.364006042480 181 181 181
20.995359420776 11.444342613220 51.314002990723 175 175 175
21.012107849121 11.429928779602 51.275001525879 14 14 14
20.922304153442 11.164664268494 51.603004455566 144 144 144
20.955219268799 11.143626213074 51.560997009277 68 68 68
20.986967086792 11.138171195984 51.526008605957 146 146 146
21.003715515137 11.123758316040 51.478996276855 194 194 194
21.003715515137 11.123758316040 51.429008483887 195 195 195
21.019296646118 11.124925613403 51.387001037598 155 155 155
21.003715515137 11.123758316040 51.332008361816 192 192 192
21.003715515137 11.123758316040 51.284996032715 125 125 125
20.930076599121 10.851869583130 51.614997863770 126 126 126
20.947410583496 10.829666137695 51.573997497559 131 131 131
20.979740142822 10.816418647766 51.538002014160 98 98 98
21.011487960815 10.810963630676 51.489997863770 174 174 174
21.011487960815 10.810963630676 51.441001892090 162 162 162
21.011487960815 10.810963630676 51.392997741699 162 162 162
21.011487960815 10.810963630676 51.345008850098 197 197 197
21.011487960815 10.810963630676 51.297004699707 151 151 151
20.939018249512 10.523494720459 51.625999450684 95 95 95
20.939018249512 10.523494720459 51.581001281738 146 146 146
20.972515106201 10.494668006897 51.545005798340 49 49 49
21.004261016846 10.489212989807 51.500007629395 172 172 172
21.004261016846 10.489212989807 51.452003479004 175 175 175
21.004261016846 10.489212989807 51.405006408691 168 168 168
21.004261016846 10.489212989807 51.355003356934 183 183 183
21.004261016846 10.489212989807 51.308006286621 165 165 165
20.931209564209 10.209532737732 51.638008117676 39 39 39
20.963539123535 10.196287155151 51.590003967285 159 159 159
20.996452331543 10.175251007080 51.513008117676 161 161 161
20.996452331543 10.175251007080 51.463996887207 177 177 177
20.996452331543 10.175251007080 51.415000915527 181 181 181
20.997035980225 10.167460441589 51.368003845215 174 174 174
20.996452331543 10.175251007080 51.318000793457 175 175 175
21.028781890869 10.162005424500 51.278007507324 38 38 38
20.939565658569 9.888948440552 51.603996276855 149 149 149
20.955730438232 9.882325172424 51.560997009277 81 81 81
20.988643646240 9.861289024353 51.526008605957 121 121 121
21.005392074585 9.846875190735 51.480995178223 187 187 187
20.988643646240 9.861289024353 51.431007385254 173 173 173
21.020389556885 9.855834007263 51.387001037598 172 172 172
20.988643646240 9.861289024353 51.333000183105 195 195 195
20.988643646240 9.861289024353 51.286003112793 128 128 128
20.947338104248 9.576154708862 51.620002746582 121 121 121
20.947921752930 9.568364143372 51.579002380371 142 142 142
20.939527511597 9.262192726135 51.633995056152 69 69 69
20.956275939941 9.247779846191 51.592002868652 151 151 151
20.932886123657 8.932650566101 51.642997741699 29 29 29
20.932886123657 8.932650566101 51.596000671387 151 151 151
20.941825866699 8.604274749756 51.653007507324 14 14 14
20.925077438354 8.618688583374 51.601005554199 159 159 159
20.852607727051 8.331219673157 52.430000305176 76 76 76
20.852607727051 8.331219673157 52.379005432129 178 178 178
20.884355545044 8.325763702393 52.333000183105 172 172 172
20.884355545044 8.325763702393 52.282005310059 169 169 169
20.884355545044 8.325763702393 52.230995178223 170 170 170
20.884355545044 8.325763702393 52.180000305176 164 164 164
20.884355545044 8.325763702393 52.131004333496 167 167 167
20.884355545044 8.325763702393 52.080009460449 172 172 172
20.884939193726 8.317973136902 52.032997131348 167 167 167
20.884939193726 8.317973136902 51.987007141113 166 166 166
20.884939193726 8.317973136902 51.937004089355 166 166 166
20.884939193726 8.317973136902 51.885002136230 167 167 167
20.886106491089 8.302392005920 51.840003967285 161 161 161
20.884939193726 8.317973136902 51.788002014160 164 164 164
