19.312500000000 12.484375000000 2.925994873047 216 216 216
19.312500000000 12.484375000000 2.962997436523 216 216 216
19.343750000000 12.484375000000 2.975997924805 224 224 224
16.625000000000 11.250000000000 2.788009643555 191 191 191
16.640625000000 11.265625000000 2.787002563477 190 190 190
16.656250000000 11.265625000000 2.794006347656 179 179 179
16.671875000000 11.265625000000 2.792999267578 188 188 188
16.671875000000 11.281250000000 2.792999267578 192 192 192
16.687500000000 11.281250000000 2.787002563477 191 191 191
16.703125000000 11.296875000000 2.779998779297 180 180 180
16.718750000000 11.312500000000 2.783996582031 172 172 172
16.734375000000 11.312500000000 2.791000366211 181 181 181
16.750000000000 11.328125000000 2.783004760742 181 181 181
16.765625000000 11.328125000000 2.783004760742 180 180 180
16.781250000000 11.328125000000 2.790008544922 181 181 181
16.796875000000 11.343750000000 2.790008544922 177 177 177
16.812500000000 11.359375000000 2.790008544922 185 185 185
16.828125000000 11.359375000000 2.794006347656 181 181 181
16.843750000000 11.375000000000 2.790008544922 176 176 176
16.859375000000 11.390625000000 2.788009643555 176 176 176
16.859375000000 11.390625000000 2.794998168945 182 182 182
16.890625000000 11.390625000000 2.796005249023 185 185 185
16.890625000000 11.406250000000 2.796005249023 176 176 176
16.906250000000 11.421875000000 2.796997070313 181 181 181
16.921875000000 11.421875000000 2.794998168945 184 184 184
16.937500000000 11.437500000000 2.798004150391 184 184 184
16.953125000000 11.437500000000 2.802001953125 187 187 187
16.984375000000 11.453125000000 2.785995483398 172 172 172
17.000000000000 11.468750000000 2.800003051758 179 179 179
17.015625000000 11.468750000000 2.796005249023 182 182 182
17.015625000000 11.484375000000 2.791000366211 182 182 182
17.046875000000 11.484375000000 2.794998168945 187 187 187
17.046875000000 11.500000000000 2.800003051758 183 183 183
17.078125000000 11.515625000000 2.796005249023 180 180 180
17.093750000000 11.515625000000 2.781997680664 176 176 176
17.109375000000 11.531250000000 2.783004760742 167 167 167
17.125000000000 11.546875000000 2.783004760742 158 158 158
17.140625000000 11.546875000000 2.783996582031 163 163 163
17.156250000000 11.562500000000 2.785003662109 168 168 168
17.187500000000 11.578125000000 2.783004760742 165 165 165
17.203125000000 11.578125000000 2.794006347656 159 159 159
17.218750000000 11.593750000000 2.790008544922 163 163 163
17.234375000000 11.609375000000 2.789001464844 170 170 170
17.265625000000 11.609375000000 2.791000366211 168 168 168
17.265625000000 11.625000000000 2.789001464844 165 165 165
17.281250000000 11.640625000000 2.794998168945 163 163 163
17.312500000000 11.640625000000 2.792007446289 158 158 158
17.328125000000 11.656250000000 2.790008544922 160 160 160
17.343750000000 11.671875000000 2.790008544922 158 158 158
17.375000000000 11.671875000000 2.790008544922 159 159 159
17.406250000000 11.703125000000 2.783004760742 151 151 151
17.421875000000 11.703125000000 2.787002563477 161 161 161
17.453125000000 11.718750000000 2.779006958008 159 159 159
17.468750000000 11.734375000000 2.781997680664 160 160 160
17.484375000000 11.734375000000 2.783996582031 162 162 162
17.515625000000 11.765625000000 2.785995483398 163 163 163
17.531250000000 11.765625000000 2.783004760742 161 161 161
17.546875000000 11.781250000000 2.777008056641 166 166 166
17.578125000000 11.796875000000 2.775009155273 166 166 166
17.609375000000 11.812500000000 2.766006469727 161 161 161
17.625000000000 11.828125000000 2.763000488281 165 165 165
17.656250000000 11.859375000000 2.755996704102 166 166 166
17.671875000000 11.859375000000 2.766006469727 170 170 170
17.703125000000 11.875000000000 2.753005981445 176 176 176
17.703125000000 11.875000000000 2.776000976563 175 175 175
17.734375000000 11.890625000000 2.768005371094 190 190 190
17.781250000000 11.921875000000 2.751998901367 197 197 197
17.812500000000 11.937500000000 2.746002197266 202 202 202
17.828125000000 11.953125000000 2.751007080078 204 204 204
17.859375000000 11.953125000000 2.753997802734 175 175 175
17.875000000000 11.968750000000 2.770004272461 177 177 177
17.890625000000 11.984375000000 2.776000976563 194 194 194
17.937500000000 12.015625000000 2.744995117188 186 186 186
17.937500000000 12.015625000000 2.768997192383 175 175 175
17.968750000000 12.015625000000 2.772003173828 180 180 180
18.000000000000 12.031250000000 2.776000976563 177 177 177
18.031250000000 12.046875000000 2.766006469727 182 182 182
18.062500000000 12.078125000000 2.770004272461 187 187 187
18.093750000000 12.093750000000 2.764999389648 181 181 181
18.140625000000 12.109375000000 2.757995605469 176 176 176
18.171875000000 12.125000000000 2.762008666992 181 181 181
18.171875000000 12.140625000000 2.774002075195 196 196 196
18.203125000000 12.140625000000 2.776000976563 190 190 190
18.187500000000 12.140625000000 2.809005737305 189 189 189
18.203125000000 12.156250000000 2.828994750977 203 203 203
18.234375000000 12.171875000000 2.828002929688 192 192 192
18.281250000000 12.203125000000 2.809005737305 192 192 192
18.359375000000 12.234375000000 2.772994995117 191 191 191
18.375000000000 12.265625000000 2.779998779297 192 192 192
18.421875000000 12.281250000000 2.774002075195 182 182 182
18.468750000000 12.312500000000 2.761001586914 176 176 176
18.531250000000 12.343750000000 2.750000000000 167 167 167
18.546875000000 12.359375000000 2.757003784180 169 169 169
18.578125000000 12.375000000000 2.763000488281 184 184 184
18.609375000000 12.390625000000 2.766998291016 185 185 185
18.656250000000 12.421875000000 2.761001586914 186 186 186
18.703125000000 12.437500000000 2.757003784180 179 179 179
18.765625000000 12.484375000000 2.748001098633 168 168 168
18.796875000000 12.484375000000 2.751998901367 177 177 177
18.812500000000 12.500000000000 2.761001586914 188 188 188
18.859375000000 12.531250000000 2.757003784180 189 189 189
18.890625000000 12.546875000000 2.760009765625 186 186 186
18.968750000000 12.578125000000 2.747009277344 188 188 188
16.640625000000 11.578125000000 2.789001464844 166 166 166
16.656250000000 11.578125000000 2.785003662109 168 168 168
16.656250000000 11.593750000000 2.794998168945 165 165 165
16.671875000000 11.593750000000 2.791000366211 174 174 174
16.703125000000 11.609375000000 2.783996582031 171 171 171
16.718750000000 11.609375000000 2.788009643555 163 163 163
16.718750000000 11.609375000000 2.794006347656 160 160 160
16.750000000000 11.640625000000 2.789001464844 157 157 157
16.765625000000 11.640625000000 2.785995483398 157 157 157
16.765625000000 11.640625000000 2.798004150391 161 161 161
16.796875000000 11.656250000000 2.787002563477 162 162 162
16.796875000000 11.671875000000 2.796005249023 158 158 158
16.828125000000 11.671875000000 2.794006347656 161 161 161
16.828125000000 11.687500000000 2.794006347656 161 161 161
16.843750000000 11.703125000000 2.796997070313 166 166 166
16.859375000000 11.703125000000 2.796997070313 170 170 170
16.875000000000 11.703125000000 2.798004150391 166 166 166
16.890625000000 11.718750000000 2.807006835938 162 162 162
16.906250000000 11.734375000000 2.802001953125 161 161 161
16.921875000000 11.734375000000 2.805999755859 165 165 165
16.937500000000 11.750000000000 2.798004150391 167 167 167
16.953125000000 11.750000000000 2.804000854492 171 171 171
16.953125000000 11.765625000000 2.798004150391 168 168 168
16.984375000000 11.781250000000 2.796005249023 169 169 169
17.000000000000 11.796875000000 2.800994873047 169 169 169
17.015625000000 11.796875000000 2.802001953125 167 167 167
17.015625000000 11.796875000000 2.794998168945 171 171 171
17.031250000000 11.812500000000 2.802001953125 173 173 173
17.046875000000 11.828125000000 2.802001953125 174 174 174
17.078125000000 11.828125000000 2.788009643555 177 177 177
17.109375000000 11.843750000000 2.785003662109 164 164 164
17.125000000000 11.843750000000 2.791000366211 164 164 164
17.125000000000 11.859375000000 2.796997070313 164 164 164
17.156250000000 11.875000000000 2.800994873047 157 157 157
17.171875000000 11.875000000000 2.798004150391 158 158 158
17.187500000000 11.890625000000 2.804000854492 161 161 161
17.203125000000 11.890625000000 2.798995971680 175 175 175
17.203125000000 11.906250000000 2.805007934570 165 165 165
17.234375000000 11.921875000000 2.796997070313 168 168 168
17.250000000000 11.937500000000 2.802001953125 161 161 161
17.281250000000 11.937500000000 2.800994873047 155 155 155
17.296875000000 11.953125000000 2.800994873047 161 161 161
17.312500000000 11.953125000000 2.800003051758 164 164 164
17.343750000000 11.984375000000 2.800003051758 163 163 163
17.359375000000 11.984375000000 2.794998168945 168 168 168
17.390625000000 12.000000000000 2.785003662109 156 156 156
17.421875000000 12.015625000000 2.783004760742 157 157 157
17.437500000000 12.031250000000 2.791000366211 156 156 156
17.453125000000 12.046875000000 2.791000366211 156 156 156
17.468750000000 12.046875000000 2.783004760742 149 149 149
17.500000000000 12.078125000000 2.781005859375 159 159 159
17.515625000000 12.078125000000 2.794006347656 172 172 172
17.531250000000 12.078125000000 2.800003051758 176 176 176
17.546875000000 12.093750000000 2.811996459961 200 200 200
17.546875000000 12.093750000000 2.826995849609 203 203 203
17.562500000000 12.109375000000 2.819000244141 190 190 190
17.562500000000 12.109375000000 2.858001708984 189 189 189
17.562500000000 12.109375000000 2.884002685547 201 201 201
17.593750000000 12.140625000000 2.873001098633 195 195 195
17.656250000000 12.171875000000 2.816009521484 194 194 194
17.703125000000 12.203125000000 2.788009643555 200 200 200
17.734375000000 12.203125000000 2.783996582031 175 175 175
17.656250000000 12.171875000000 2.889999389648 160 160 160
17.656250000000 12.171875000000 2.910003662109 171 171 171
17.828125000000 12.250000000000 2.776000976563 174 174 174
16.625000000000 11.890625000000 2.798004150391 170 170 170
16.640625000000 11.890625000000 2.800003051758 166 166 166
16.656250000000 11.890625000000 2.794998168945 163 163 163
16.671875000000 11.906250000000 2.796997070313 154 154 154
16.687500000000 11.921875000000 2.794006347656 152 152 152
16.703125000000 11.921875000000 2.789001464844 156 156 156
16.718750000000 11.937500000000 2.794998168945 159 159 159
16.734375000000 11.937500000000 2.794006347656 157 157 157
16.765625000000 11.953125000000 2.798995971680 155 155 155
17.000000000000 8.187500000000 2.544006347656 150 150 150
16.953125000000 8.203125000000 2.563003540039 147 147 147
16.937500000000 8.203125000000 2.568008422852 147 147 147
16.921875000000 8.218750000000 2.569000244141 158 158 158
16.906250000000 8.234375000000 2.574996948242 161 161 161
16.890625000000 8.234375000000 2.578002929688 185 185 185
16.890625000000 8.265625000000 2.576004028320 164 164 164
16.859375000000 8.265625000000 2.578002929688 154 154 154
16.828125000000 8.281250000000 2.598999023438 143 143 143
16.750000000000 8.312500000000 2.719009399414 151 151 151
16.718750000000 8.328125000000 2.761001586914 157 157 157
16.703125000000 8.343750000000 2.764999389648 170 170 170
16.703125000000 8.343750000000 2.764999389648 169 169 169
16.671875000000 8.359375000000 2.762008666992 172 172 172
16.656250000000 8.359375000000 2.764999389648 174 174 174
16.640625000000 8.375000000000 2.770004272461 172 172 172
16.640625000000 8.390625000000 2.753997802734 162 162 162
16.625000000000 8.390625000000 2.762008666992 159 159 159
17.328125000000 8.281250000000 2.550994873047 169 169 169
17.171875000000 8.375000000000 2.749008178711 173 173 173
17.156250000000 8.390625000000 2.753005981445 165 165 165
17.140625000000 8.390625000000 2.744995117188 172 172 172
17.109375000000 8.406250000000 2.764999389648 180 180 180
17.093750000000 8.406250000000 2.770004272461 184 184 184
17.062500000000 8.421875000000 2.788009643555 174 174 174
17.046875000000 8.453125000000 2.776000976563 170 170 170
17.031250000000 8.453125000000 2.779998779297 173 173 173
17.015625000000 8.453125000000 2.770996093750 176 176 176
17.000000000000 8.468750000000 2.781997680664 175 175 175
16.984375000000 8.484375000000 2.779006958008 173 173 173
16.984375000000 8.484375000000 2.785995483398 171 171 171
16.953125000000 8.500000000000 2.781005859375 166 166 166
16.953125000000 8.515625000000 2.772994995117 165 165 165
16.937500000000 8.515625000000 2.777008056641 165 165 165
16.921875000000 8.531250000000 2.775009155273 167 167 167
16.906250000000 8.546875000000 2.770004272461 167 167 167
16.890625000000 8.546875000000 2.775009155273 170 170 170
16.859375000000 8.546875000000 2.775009155273 169 169 169
16.843750000000 8.562500000000 2.781005859375 166 166 166
16.843750000000 8.578125000000 2.777008056641 166 166 166
16.828125000000 8.578125000000 2.777999877930 165 165 165
16.812500000000 8.593750000000 2.774002075195 166 166 166
16.812500000000 8.609375000000 2.772003173828 164 164 164
16.796875000000 8.609375000000 2.772003173828 166 166 166
16.765625000000 8.625000000000 2.770996093750 167 167 167
16.750000000000 8.625000000000 2.770004272461 169 169 169
16.734375000000 8.640625000000 2.770996093750 174 174 174
16.734375000000 8.640625000000 2.763000488281 168 168 168
16.718750000000 8.656250000000 2.777008056641 163 163 163
16.703125000000 8.656250000000 2.766998291016 169 169 169
16.687500000000 8.671875000000 2.766998291016 177 177 177
16.671875000000 8.671875000000 2.772994995117 174 174 174
16.656250000000 8.687500000000 2.770996093750 178 178 178
16.640625000000 8.703125000000 2.763000488281 184 184 184
16.640625000000 8.703125000000 2.761001586914 170 170 170
16.625000000000 8.718750000000 2.766998291016 169 169 169
17.703125000000 8.359375000000 2.604995727539 185 185 185
17.687500000000 8.375000000000 2.602005004883 212 212 212
17.671875000000 8.390625000000 2.597000122070 213 213 213
17.656250000000 8.390625000000 2.585998535156 214 214 214
17.640625000000 8.421875000000 2.576004028320 203 203 203
17.625000000000 8.421875000000 2.570999145508 179 179 179
17.593750000000 8.437500000000 2.574005126953 177 177 177
17.578125000000 8.453125000000 2.572998046875 170 170 170
17.562500000000 8.468750000000 2.576995849609 168 168 168
17.515625000000 8.484375000000 2.583007812500 169 169 169
17.500000000000 8.484375000000 2.594009399414 178 178 178
17.468750000000 8.515625000000 2.598999023438 172 172 172
17.453125000000 8.515625000000 2.600997924805 169 169 169
17.421875000000 8.546875000000 2.608001708984 185 185 185
17.390625000000 8.546875000000 2.628997802734 166 166 166
17.375000000000 8.578125000000 2.626998901367 178 178 178
17.328125000000 8.593750000000 2.643997192383 173 173 173
17.296875000000 8.609375000000 2.662002563477 180 180 180
17.281250000000 8.625000000000 2.669006347656 174 174 174
17.265625000000 8.640625000000 2.682006835938 177 177 177
17.234375000000 8.656250000000 2.682006835938 182 182 182
17.203125000000 8.671875000000 2.686004638672 172 172 172
17.140625000000 8.703125000000 2.747009277344 177 177 177
17.109375000000 8.734375000000 2.777999877930 179 179 179
17.093750000000 8.734375000000 2.779998779297 184 184 184
17.078125000000 8.734375000000 2.783004760742 185 185 185
17.046875000000 8.750000000000 2.779998779297 176 176 176
17.031250000000 8.765625000000 2.777999877930 169 169 169
17.031250000000 8.765625000000 2.776000976563 171 171 171
17.015625000000 8.781250000000 2.776000976563 171 171 171
17.000000000000 8.796875000000 2.781005859375 171 171 171
16.984375000000 8.796875000000 2.777008056641 173 173 173
16.953125000000 8.812500000000 2.781005859375 169 169 169
16.937500000000 8.828125000000 2.776000976563 168 168 168
16.937500000000 8.828125000000 2.774002075195 165 165 165
16.921875000000 8.843750000000 2.772994995117 170 170 170
16.906250000000 8.843750000000 2.772994995117 164 164 164
16.890625000000 8.859375000000 2.770996093750 165 165 165
16.875000000000 8.859375000000 2.768005371094 164 164 164
16.859375000000 8.875000000000 2.775009155273 163 163 163
16.859375000000 8.890625000000 2.770996093750 165 165 165
16.843750000000 8.890625000000 2.772003173828 165 165 165
16.828125000000 8.906250000000 2.779006958008 160 160 160
16.796875000000 8.921875000000 2.775009155273 166 166 166
16.796875000000 8.921875000000 2.772003173828 165 165 165
16.781250000000 8.921875000000 2.768997192383 165 165 165
16.765625000000 8.937500000000 2.766998291016 164 164 164
16.750000000000 8.953125000000 2.768997192383 168 168 168
16.750000000000 8.953125000000 2.766998291016 172 172 172
16.734375000000 8.984375000000 2.774002075195 169 169 169
16.703125000000 8.984375000000 2.770996093750 167 167 167
16.687500000000 8.984375000000 2.768997192383 175 175 175
16.687500000000 8.984375000000 2.766006469727 173 173 173
16.671875000000 9.000000000000 2.770004272461 174 174 174
16.656250000000 9.000000000000 2.766006469727 174 174 174
16.640625000000 9.015625000000 2.768997192383 175 175 175
16.640625000000 9.015625000000 2.750000000000 161 161 161
18.062500000000 8.453125000000 2.606002807617 167 167 167
18.031250000000 8.484375000000 2.613006591797 170 170 170
18.000000000000 8.500000000000 2.626998901367 155 155 155
17.765625000000 8.609375000000 2.820007324219 198 198 198
17.781250000000 8.609375000000 2.779006958008 183 183 183
17.890625000000 8.562500000000 2.643997192383 165 165 165
17.875000000000 8.562500000000 2.632995605469 167 167 167
17.859375000000 8.578125000000 2.626998901367 174 174 174
17.843750000000 8.593750000000 2.626998901367 166 166 166
17.796875000000 8.609375000000 2.628997802734 164 164 164
17.765625000000 8.640625000000 2.647994995117 164 164 164
17.640625000000 8.703125000000 2.757003784180 197 197 197
17.656250000000 8.703125000000 2.725997924805 187 187 187
17.640625000000 8.703125000000 2.701995849609 187 187 187
17.656250000000 8.687500000000 2.654998779297 189 189 189
17.640625000000 8.718750000000 2.667999267578 187 187 187
17.609375000000 8.734375000000 2.667999267578 185 185 185
17.593750000000 8.750000000000 2.673995971680 174 174 174
17.578125000000 8.765625000000 2.669006347656 166 166 166
17.546875000000 8.781250000000 2.680007934570 166 166 166
17.515625000000 8.796875000000 2.694000244141 171 171 171
17.484375000000 8.812500000000 2.699005126953 173 173 173
17.468750000000 8.828125000000 2.712997436523 174 174 174
17.421875000000 8.828125000000 2.714004516602 183 183 183
17.406250000000 8.859375000000 2.723999023438 181 181 181
17.390625000000 8.859375000000 2.721008300781 183 183 183
17.359375000000 8.890625000000 2.732009887695 181 181 181
17.328125000000 8.890625000000 2.740005493164 182 182 182
17.312500000000 8.921875000000 2.753005981445 179 179 179
17.281250000000 8.921875000000 2.755004882813 174 174 174
17.250000000000 8.953125000000 2.759002685547 180 180 180
17.234375000000 8.953125000000 2.755004882813 170 170 170
17.218750000000 8.968750000000 2.763000488281 173 173 173
17.203125000000 8.984375000000 2.763000488281 178 178 178
17.187500000000 8.984375000000 2.755004882813 165 165 165
17.171875000000 9.000000000000 2.751998901367 179 179 179
17.156250000000 9.015625000000 2.750000000000 174 174 174
17.125000000000 9.015625000000 2.768005371094 175 175 175
17.109375000000 9.046875000000 2.777008056641 172 172 172
17.078125000000 9.046875000000 2.783004760742 181 181 181
17.062500000000 9.062500000000 2.777999877930 181 181 181
17.046875000000 9.062500000000 2.777008056641 173 173 173
17.031250000000 9.078125000000 2.785003662109 171 171 171
17.015625000000 9.093750000000 2.781005859375 174 174 174
17.015625000000 9.093750000000 2.770004272461 172 172 172
16.984375000000 9.109375000000 2.775009155273 176 176 176
16.968750000000 9.125000000000 2.783004760742 174 174 174
16.953125000000 9.125000000000 2.779998779297 177 177 177
16.937500000000 9.140625000000 2.777008056641 174 174 174
16.921875000000 9.140625000000 2.774002075195 173 173 173
16.906250000000 9.156250000000 2.777999877930 175 175 175
16.890625000000 9.171875000000 2.779006958008 173 173 173
16.875000000000 9.171875000000 2.770004272461 174 174 174
16.859375000000 9.171875000000 2.764007568359 169 169 169
16.843750000000 9.187500000000 2.774002075195 166 166 166
16.828125000000 9.203125000000 2.775009155273 173 173 173
16.828125000000 9.203125000000 2.764999389648 180 180 180
16.812500000000 9.218750000000 2.774002075195 180 180 180
16.796875000000 9.234375000000 2.777999877930 176 176 176
16.781250000000 9.234375000000 2.779006958008 175 175 175
16.781250000000 9.250000000000 2.768005371094 173 173 173
16.765625000000 9.265625000000 2.766998291016 173 173 173
16.734375000000 9.265625000000 2.775009155273 173 173 173
16.718750000000 9.281250000000 2.772994995117 175 175 175
16.718750000000 9.296875000000 2.770004272461 173 173 173
16.703125000000 9.296875000000 2.772994995117 179 179 179
16.687500000000 9.296875000000 2.770004272461 178 178 178
16.671875000000 9.312500000000 2.772003173828 179 179 179
16.671875000000 9.328125000000 2.768997192383 184 184 184
16.640625000000 9.328125000000 2.774002075195 188 188 188
16.625000000000 9.328125000000 2.768005371094 190 190 190
16.625000000000 9.343750000000 2.759002685547 171 171 171
18.421875000000 8.546875000000 2.619003295898 185 185 185
18.390625000000 8.578125000000 2.626998901367 170 170 170
18.328125000000 8.609375000000 2.654998779297 190 190 190
18.265625000000 8.640625000000 2.675003051758 176 176 176
18.234375000000 8.671875000000 2.690002441406 203 203 203
18.203125000000 8.687500000000 2.695007324219 204 204 204
18.171875000000 8.703125000000 2.680999755859 192 192 192
18.140625000000 8.703125000000 2.680007934570 176 176 176
18.125000000000 8.734375000000 2.679000854492 168 168 168
18.078125000000 8.750000000000 2.675994873047 166 166 166
18.062500000000 8.765625000000 2.678009033203 173 173 173
18.046875000000 8.781250000000 2.673995971680 186 186 186
18.031250000000 8.796875000000 2.665008544922 177 177 177
17.984375000000 8.812500000000 2.667007446289 172 172 172
17.968750000000 8.828125000000 2.669006347656 179 179 179
17.921875000000 8.859375000000 2.695007324219 199 199 199
17.859375000000 8.890625000000 2.716003417969 197 197 197
17.875000000000 8.890625000000 2.678009033203 199 199 199
17.843750000000 8.906250000000 2.688003540039 183 183 183
17.828125000000 8.906250000000 2.677001953125 183 183 183
17.796875000000 8.921875000000 2.669998168945 184 184 184
17.781250000000 8.937500000000 2.673995971680 174 174 174
17.750000000000 8.953125000000 2.684997558594 168 168 168
17.703125000000 8.984375000000 2.692001342773 171 171 171
17.687500000000 8.984375000000 2.694000244141 162 162 162
17.656250000000 9.015625000000 2.699996948242 167 167 167
17.625000000000 9.031250000000 2.710006713867 163 163 163
17.593750000000 9.046875000000 2.716995239258 165 165 165
17.578125000000 9.062500000000 2.722000122070 167 167 167
17.546875000000 9.078125000000 2.729003906250 165 165 165
17.531250000000 9.093750000000 2.733001708984 169 169 169
17.500000000000 9.109375000000 2.740005493164 165 165 165
17.484375000000 9.125000000000 2.742004394531 170 170 170
17.453125000000 9.140625000000 2.751998901367 176 176 176
17.437500000000 9.140625000000 2.751007080078 166 166 166
17.406250000000 9.171875000000 2.755004882813 172 172 172
17.390625000000 9.187500000000 2.763000488281 170 170 170
17.359375000000 9.203125000000 2.764007568359 179 179 179
17.343750000000 9.203125000000 2.763000488281 168 168 168
17.312500000000 9.218750000000 2.770996093750 165 165 165
17.296875000000 9.234375000000 2.776000976563 166 166 166
17.296875000000 9.250000000000 2.766998291016 173 173 173
17.250000000000 9.250000000000 2.770004272461 179 179 179
17.234375000000 9.265625000000 2.774002075195 173 173 173
17.218750000000 9.281250000000 2.772003173828 168 168 168
17.203125000000 9.296875000000 2.770004272461 171 171 171
17.171875000000 9.296875000000 2.770996093750 171 171 171
17.171875000000 9.312500000000 2.770004272461 178 178 178
17.156250000000 9.328125000000 2.764999389648 175 175 175
17.140625000000 9.328125000000 2.764007568359 181 181 181
17.125000000000 9.343750000000 2.768997192383 181 181 181
17.093750000000 9.359375000000 2.777008056641 186 186 186
17.062500000000 9.375000000000 2.783004760742 192 192 192
17.062500000000 9.390625000000 2.775009155273 194 194 194
17.046875000000 9.390625000000 2.779006958008 183 183 183
17.031250000000 9.406250000000 2.779006958008 185 185 185
17.015625000000 9.406250000000 2.777999877930 177 177 177
17.000000000000 9.421875000000 2.766998291016 174 174 174
16.968750000000 9.421875000000 2.777999877930 189 189 189
16.953125000000 9.437500000000 2.781005859375 188 188 188
16.953125000000 9.453125000000 2.779006958008 194 194 194
16.937500000000 9.453125000000 2.781005859375 192 192 192
16.906250000000 9.468750000000 2.772994995117 195 195 195
16.890625000000 9.468750000000 2.777008056641 194 194 194
16.875000000000 9.484375000000 2.777999877930 192 192 192
16.875000000000 9.500000000000 2.775009155273 183 183 183
16.859375000000 9.500000000000 2.777008056641 187 187 187
16.828125000000 9.515625000000 2.777999877930 194 194 194
16.812500000000 9.531250000000 2.779006958008 196 196 196
16.796875000000 9.531250000000 2.777999877930 194 194 194
16.796875000000 9.546875000000 2.768005371094 196 196 196
16.781250000000 9.546875000000 2.768005371094 193 193 193
16.765625000000 9.562500000000 2.776000976563 190 190 190
16.750000000000 9.578125000000 2.777999877930 187 187 187
16.734375000000 9.578125000000 2.772003173828 177 177 177
16.734375000000 9.593750000000 2.775009155273 194 194 194
16.718750000000 9.593750000000 2.770004272461 194 194 194
16.703125000000 9.609375000000 2.774002075195 192 192 192
16.687500000000 9.609375000000 2.772003173828 193 193 193
16.687500000000 9.625000000000 2.772003173828 188 188 188
16.671875000000 9.640625000000 2.768005371094 187 187 187
16.640625000000 9.640625000000 2.772003173828 191 191 191
16.640625000000 9.656250000000 2.768005371094 191 191 191
16.625000000000 9.656250000000 2.766998291016 183 183 183
18.625000000000 8.734375000000 2.751007080078 204 204 204
18.578125000000 8.765625000000 2.760009765625 199 199 199
18.625000000000 8.734375000000 2.697006225586 190 190 190
18.593750000000 8.750000000000 2.686996459961 178 178 178
18.578125000000 8.765625000000 2.686996459961 204 204 204
18.484375000000 8.812500000000 2.720001220703 198 198 198
18.453125000000 8.828125000000 2.710006713867 192 192 192
18.437500000000 8.843750000000 2.703994750977 184 184 184
18.406250000000 8.875000000000 2.701995849609 184 184 184
18.359375000000 8.890625000000 2.708999633789 181 181 181
18.328125000000 8.906250000000 2.707000732422 180 180 180
18.296875000000 8.937500000000 2.710998535156 181 181 181
18.265625000000 8.953125000000 2.710006713867 190 190 190
18.250000000000 8.968750000000 2.705001831055 196 196 196
18.234375000000 8.984375000000 2.703994750977 189 189 189
18.187500000000 9.000000000000 2.705001831055 186 186 186
18.156250000000 9.031250000000 2.710998535156 187 187 187
18.125000000000 9.046875000000 2.712005615234 202 202 202
18.093750000000 9.046875000000 2.707000732422 195 195 195
18.078125000000 9.062500000000 2.697006225586 191 191 191
18.046875000000 9.093750000000 2.701004028320 185 185 185
18.000000000000 9.109375000000 2.719009399414 198 198 198
17.984375000000 9.125000000000 2.710006713867 207 207 207
17.953125000000 9.140625000000 2.714996337891 210 210 210
17.906250000000 9.171875000000 2.720001220703 215 215 215
17.906250000000 9.171875000000 2.701004028320 211 211 211
17.890625000000 9.187500000000 2.701004028320 192 192 192
17.859375000000 9.203125000000 2.699005126953 191 191 191
17.828125000000 9.234375000000 2.703994750977 187 187 187
17.781250000000 9.234375000000 2.723007202148 183 183 183
17.734375000000 9.265625000000 2.738998413086 187 187 187
17.703125000000 9.281250000000 2.750000000000 188 188 188
17.703125000000 9.296875000000 2.729995727539 177 177 177
17.687500000000 9.312500000000 2.736007690430 174 174 174
17.640625000000 9.328125000000 2.749008178711 166 166 166
17.609375000000 9.343750000000 2.751998901367 170 170 170
17.593750000000 9.359375000000 2.753005981445 172 172 172
17.546875000000 9.375000000000 2.766998291016 169 169 169
17.531250000000 9.390625000000 2.760009765625 166 166 166
17.515625000000 9.421875000000 2.770996093750 163 163 163
17.484375000000 9.421875000000 2.775009155273 161 161 161
17.453125000000 9.437500000000 2.779006958008 169 169 169
17.453125000000 9.453125000000 2.781005859375 176 176 176
17.437500000000 9.468750000000 2.779998779297 170 170 170
17.421875000000 9.484375000000 2.774002075195 176 176 176
17.390625000000 9.484375000000 2.783996582031 176 176 176
17.375000000000 9.500000000000 2.777008056641 168 168 168
17.343750000000 9.515625000000 2.783004760742 180 180 180
17.343750000000 9.515625000000 2.772003173828 174 174 174
17.328125000000 9.531250000000 2.776000976563 162 162 162
17.296875000000 9.546875000000 2.770996093750 171 171 171
17.281250000000 9.546875000000 2.774002075195 171 171 171
17.265625000000 9.578125000000 2.770996093750 177 177 177
17.250000000000 9.578125000000 2.766998291016 173 173 173
17.234375000000 9.578125000000 2.768997192383 170 170 170
17.203125000000 9.609375000000 2.772003173828 169 169 169
17.187500000000 9.609375000000 2.768005371094 178 178 178
17.171875000000 9.625000000000 2.777008056641 172 172 172
17.156250000000 9.640625000000 2.770004272461 177 177 177
17.140625000000 9.640625000000 2.764999389648 173 173 173
17.109375000000 9.656250000000 2.777008056641 188 188 188
17.093750000000 9.671875000000 2.783004760742 197 197 197
17.078125000000 9.687500000000 2.775009155273 200 200 200
17.062500000000 9.687500000000 2.777999877930 201 201 201
17.046875000000 9.703125000000 2.783004760742 200 200 200
17.015625000000 9.703125000000 2.779006958008 197 197 197
17.000000000000 9.734375000000 2.779998779297 189 189 189
17.000000000000 9.734375000000 2.774002075195 188 188 188
16.984375000000 9.750000000000 2.777999877930 199 199 199
16.968750000000 9.750000000000 2.781005859375 196 196 196
16.953125000000 9.765625000000 2.787002563477 195 195 195
16.921875000000 9.765625000000 2.787002563477 191 191 191
16.906250000000 9.781250000000 2.781005859375 187 187 187
16.890625000000 9.796875000000 2.783004760742 187 187 187
16.875000000000 9.796875000000 2.783996582031 191 191 191
16.875000000000 9.812500000000 2.785995483398 182 182 182
16.859375000000 9.812500000000 2.779998779297 179 179 179
16.828125000000 9.828125000000 2.776000976563 185 185 185
16.812500000000 9.828125000000 2.779998779297 186 186 186
16.796875000000 9.843750000000 2.781997680664 189 189 189
16.796875000000 9.859375000000 2.783004760742 184 184 184
16.781250000000 9.859375000000 2.777999877930 180 180 180
16.765625000000 9.859375000000 2.776000976563 172 172 172
16.734375000000 9.890625000000 2.777999877930 175 175 175
16.734375000000 9.890625000000 2.772003173828 170 170 170
16.718750000000 9.906250000000 2.775009155273 175 175 175
16.703125000000 9.906250000000 2.772994995117 175 175 175
16.687500000000 9.921875000000 2.777999877930 175 175 175
16.671875000000 9.937500000000 2.777008056641 177 177 177
16.656250000000 9.937500000000 2.775009155273 174 174 174
16.656250000000 9.953125000000 2.783004760742 175 175 175
16.656250000000 9.953125000000 2.768997192383 175 175 175
16.640625000000 9.953125000000 2.772003173828 173 173 173
16.625000000000 9.968750000000 2.772003173828 173 173 173
16.625000000000 9.984375000000 2.751998901367 165 165 165
19.140625000000 8.734375000000 2.602005004883 168 168 168
19.078125000000 8.796875000000 2.617004394531 165 165 165
18.968750000000 8.843750000000 2.654998779297 175 175 175
18.578125000000 9.078125000000 2.914001464844 216 216 216
18.500000000000 9.109375000000 2.940002441406 211 211 211
18.484375000000 9.125000000000 2.921997070313 207 207 207
18.453125000000 9.140625000000 2.906997680664 207 207 207
18.437500000000 9.156250000000 2.904006958008 205 205 205
18.437500000000 9.156250000000 2.874008178711 202 202 202
18.453125000000 9.140625000000 2.828002929688 192 192 192
18.390625000000 9.187500000000 2.861999511719 200 200 200
18.343750000000 9.203125000000 2.867996215820 206 206 206
18.375000000000 9.203125000000 2.818008422852 198 198 198
18.328125000000 9.218750000000 2.826004028320 206 206 206
18.312500000000 9.234375000000 2.824996948242 206 206 206
18.187500000000 9.312500000000 2.884002685547 204 204 204
18.140625000000 9.328125000000 2.912002563477 210 210 210
18.296875000000 9.250000000000 2.742996215820 201 201 201
18.281250000000 9.265625000000 2.732009887695 201 201 201
18.250000000000 9.281250000000 2.735000610352 196 196 196
18.250000000000 9.281250000000 2.714004516602 201 201 201
18.203125000000 9.312500000000 2.719009399414 196 196 196
18.171875000000 9.328125000000 2.738006591797 199 199 199
18.156250000000 9.343750000000 2.729003906250 201 201 201
18.125000000000 9.359375000000 2.714996337891 193 193 193
18.093750000000 9.375000000000 2.718002319336 199 199 199
18.078125000000 9.390625000000 2.718002319336 193 193 193
18.046875000000 9.406250000000 2.725006103516 191 191 191
18.000000000000 9.421875000000 2.725006103516 193 193 193
17.968750000000 9.453125000000 2.740005493164 209 209 209
17.953125000000 9.468750000000 2.729995727539 203 203 203
17.921875000000 9.484375000000 2.725006103516 188 188 188
17.890625000000 9.500000000000 2.735000610352 184 184 184
17.859375000000 9.515625000000 2.740005493164 180 180 180
17.828125000000 9.546875000000 2.744003295898 190 190 190
17.812500000000 9.546875000000 2.738006591797 181 181 181
17.781250000000 9.562500000000 2.748001098633 174 174 174
17.750000000000 9.578125000000 2.747009277344 169 169 169
17.718750000000 9.593750000000 2.747009277344 166 166 166
17.703125000000 9.609375000000 2.751998901367 170 170 170
17.656250000000 9.640625000000 2.755996704102 168 168 168
17.640625000000 9.640625000000 2.761001586914 167 167 167
17.625000000000 9.671875000000 2.760009765625 168 168 168
17.593750000000 9.671875000000 2.764999389648 170 170 170
17.562500000000 9.703125000000 2.766006469727 170 170 170
17.546875000000 9.703125000000 2.766998291016 171 171 171
17.531250000000 9.718750000000 2.766006469727 170 170 170
17.500000000000 9.734375000000 2.772994995117 173 173 173
17.468750000000 9.750000000000 2.768997192383 167 167 167
17.453125000000 9.765625000000 2.766006469727 171 171 171
17.437500000000 9.781250000000 2.777999877930 165 165 165
17.421875000000 9.796875000000 2.776000976563 172 172 172
17.390625000000 9.796875000000 2.774002075195 168 168 168
17.375000000000 9.812500000000 2.776000976563 167 167 167
17.359375000000 9.828125000000 2.777008056641 170 170 170
17.343750000000 9.828125000000 2.781005859375 174 174 174
17.312500000000 9.859375000000 2.787002563477 171 171 171
17.296875000000 9.859375000000 2.777999877930 174 174 174
17.281250000000 9.859375000000 2.779006958008 174 174 174
17.265625000000 9.875000000000 2.779006958008 169 169 169
17.250000000000 9.890625000000 2.781005859375 171 171 171
17.234375000000 9.906250000000 2.777008056641 168 168 168
17.218750000000 9.906250000000 2.770004272461 173 173 173
17.187500000000 9.921875000000 2.774002075195 173 173 173
17.171875000000 9.937500000000 2.772003173828 173 173 173
17.156250000000 9.953125000000 2.776000976563 174 174 174
17.140625000000 9.953125000000 2.772003173828 174 174 174
17.125000000000 9.968750000000 2.770004272461 183 183 183
17.093750000000 9.984375000000 2.777999877930 184 184 184
17.093750000000 9.984375000000 2.774002075195 180 180 180
17.078125000000 10.015625000000 2.781997680664 188 188 188
17.046875000000 10.015625000000 2.779006958008 189 189 189
17.031250000000 10.031250000000 2.781997680664 185 185 185
17.015625000000 10.046875000000 2.789001464844 182 182 182
17.000000000000 10.046875000000 2.790008544922 172 172 172
16.984375000000 10.046875000000 2.783004760742 173 173 173
16.968750000000 10.062500000000 2.783996582031 179 179 179
16.937500000000 10.078125000000 2.788009643555 179 179 179
16.921875000000 10.078125000000 2.783004760742 175 175 175
16.921875000000 10.093750000000 2.781005859375 175 175 175
16.906250000000 10.093750000000 2.777999877930 175 175 175
16.890625000000 10.109375000000 2.772003173828 172 172 172
16.859375000000 10.125000000000 2.781005859375 168 168 168
16.859375000000 10.125000000000 2.775009155273 167 167 167
16.843750000000 10.140625000000 2.768005371094 167 167 167
16.828125000000 10.156250000000 2.783996582031 177 177 177
16.812500000000 10.156250000000 2.781997680664 176 176 176
16.796875000000 10.171875000000 2.772003173828 172 172 172
16.796875000000 10.171875000000 2.770996093750 171 171 171
16.765625000000 10.187500000000 2.777999877930 169 169 169
16.750000000000 10.203125000000 2.779998779297 173 173 173
16.734375000000 10.203125000000 2.781005859375 170 170 170
16.718750000000 10.203125000000 2.774002075195 165 165 165
16.718750000000 10.234375000000 2.777999877930 167 167 167
16.703125000000 10.234375000000 2.772994995117 169 169 169
16.671875000000 10.234375000000 2.772003173828 169 169 169
16.656250000000 10.250000000000 2.781005859375 171 171 171
16.640625000000 10.265625000000 2.777008056641 169 169 169
16.640625000000 10.265625000000 2.775009155273 172 172 172
16.625000000000 10.265625000000 2.774002075195 169 169 169
19.359375000000 8.906250000000 2.824005126953 228 228 228
19.281250000000 8.968750000000 2.716995239258 202 202 202
19.203125000000 9.000000000000 2.725997924805 201 201 201
19.171875000000 9.046875000000 2.729003906250 195 195 195
19.125000000000 9.062500000000 2.716995239258 198 198 198
19.093750000000 9.078125000000 2.710006713867 196 196 196
19.031250000000 9.109375000000 2.718002319336 181 181 181
18.984375000000 9.140625000000 2.720001220703 191 191 191
18.921875000000 9.171875000000 2.727005004883 188 188 188
18.750000000000 9.281250000000 2.824996948242 209 209 209
18.609375000000 9.375000000000 2.908996582031 211 211 211
18.625000000000 9.359375000000 2.869995117188 204 204 204
18.609375000000 9.375000000000 2.854995727539 208 208 208
18.703125000000 9.328125000000 2.761001586914 182 182 182
18.640625000000 9.359375000000 2.766998291016 187 187 187
18.625000000000 9.375000000000 2.763000488281 200 200 200
18.578125000000 9.390625000000 2.751007080078 191 191 191
18.546875000000 9.406250000000 2.753005981445 196 196 196
18.531250000000 9.421875000000 2.747009277344 197 197 197
18.484375000000 9.453125000000 2.742996215820 199 199 199
18.453125000000 9.468750000000 2.746002197266 201 201 201
18.421875000000 9.484375000000 2.742004394531 201 201 201
18.390625000000 9.515625000000 2.738006591797 204 204 204
18.359375000000 9.531250000000 2.742004394531 207 207 207
18.328125000000 9.546875000000 2.740005493164 207 207 207
18.296875000000 9.562500000000 2.734008789063 208 208 208
18.265625000000 9.578125000000 2.732009887695 186 186 186
18.234375000000 9.609375000000 2.732009887695 182 182 182
18.203125000000 9.625000000000 2.734008789063 175 175 175
18.171875000000 9.640625000000 2.734008789063 176 176 176
18.156250000000 9.640625000000 2.729995727539 178 178 178
18.109375000000 9.671875000000 2.731002807617 178 178 178
18.093750000000 9.687500000000 2.729995727539 182 182 182
18.078125000000 9.703125000000 2.732009887695 178 178 178
18.046875000000 9.718750000000 2.727005004883 177 177 177
18.015625000000 9.734375000000 2.727996826172 175 175 175
17.984375000000 9.765625000000 2.736007690430 180 180 180
17.953125000000 9.781250000000 2.734008789063 176 176 176
17.937500000000 9.796875000000 2.734008789063 176 176 176
17.906250000000 9.812500000000 2.736999511719 168 168 168
17.859375000000 9.828125000000 2.740997314453 173 173 173
17.843750000000 9.843750000000 2.738006591797 174 174 174
17.812500000000 9.859375000000 2.742996215820 169 169 169
17.796875000000 9.875000000000 2.740005493164 164 164 164
17.750000000000 9.890625000000 2.753997802734 175 175 175
17.734375000000 9.906250000000 2.753997802734 169 169 169
17.718750000000 9.921875000000 2.753997802734 168 168 168
17.671875000000 9.937500000000 2.759002685547 170 170 170
17.656250000000 9.953125000000 2.760009765625 171 171 171
17.625000000000 9.968750000000 2.768005371094 171 171 171
17.609375000000 9.984375000000 2.766006469727 168 168 168
17.578125000000 10.000000000000 2.770004272461 173 173 173
17.546875000000 10.015625000000 2.772994995117 173 173 173
17.531250000000 10.031250000000 2.772994995117 176 176 176
17.500000000000 10.046875000000 2.779006958008 169 169 169
17.468750000000 10.062500000000 2.785003662109 165 165 165
17.453125000000 10.078125000000 2.785003662109 163 163 163
17.437500000000 10.093750000000 2.785003662109 168 168 168
17.406250000000 10.109375000000 2.791000366211 167 167 167
17.390625000000 10.109375000000 2.783996582031 171 171 171
17.375000000000 10.125000000000 2.790008544922 172 172 172
17.359375000000 10.140625000000 2.789001464844 174 174 174
17.343750000000 10.156250000000 2.783996582031 168 168 168
17.312500000000 10.171875000000 2.783004760742 166 166 166
17.296875000000 10.171875000000 2.788009643555 176 176 176
17.296875000000 10.171875000000 2.785003662109 181 181 181
17.265625000000 10.187500000000 2.790008544922 169 169 169
17.265625000000 10.203125000000 2.785003662109 166 166 166
17.234375000000 10.218750000000 2.785003662109 171 171 171
17.218750000000 10.234375000000 2.785003662109 168 168 168
17.203125000000 10.234375000000 2.776000976563 177 177 177
17.187500000000 10.250000000000 2.777999877930 170 170 170
17.171875000000 10.265625000000 2.785003662109 172 172 172
17.140625000000 10.265625000000 2.781005859375 167 167 167
17.125000000000 10.281250000000 2.777008056641 164 164 164
17.109375000000 10.296875000000 2.781997680664 182 182 182
17.093750000000 10.312500000000 2.788009643555 180 180 180
17.078125000000 10.312500000000 2.785003662109 178 178 178
17.046875000000 10.328125000000 2.783004760742 178 178 178
17.031250000000 10.328125000000 2.781997680664 178 178 178
17.015625000000 10.343750000000 2.785003662109 177 177 177
17.015625000000 10.359375000000 2.781005859375 173 173 173
17.000000000000 10.359375000000 2.777999877930 168 168 168
16.968750000000 10.390625000000 2.788009643555 171 171 171
16.953125000000 10.390625000000 2.785995483398 171 171 171
16.937500000000 10.390625000000 2.779998779297 173 173 173
16.921875000000 10.406250000000 2.781997680664 168 168 168
16.906250000000 10.421875000000 2.783996582031 168 168 168
16.890625000000 10.421875000000 2.781005859375 169 169 169
16.875000000000 10.437500000000 2.787002563477 171 171 171
16.859375000000 10.437500000000 2.783004760742 167 167 167
16.843750000000 10.453125000000 2.779998779297 163 163 163
16.828125000000 10.453125000000 2.783996582031 166 166 166
16.828125000000 10.468750000000 2.779006958008 168 168 168
16.812500000000 10.484375000000 2.777008056641 164 164 164
16.781250000000 10.484375000000 2.779998779297 161 161 161
16.765625000000 10.500000000000 2.781997680664 161 161 161
16.765625000000 10.515625000000 2.770996093750 163 163 163
16.750000000000 10.515625000000 2.777999877930 164 164 164
16.734375000000 10.515625000000 2.766998291016 161 161 161
16.718750000000 10.531250000000 2.779006958008 164 164 164
16.687500000000 10.546875000000 2.779006958008 169 169 169
16.687500000000 10.546875000000 2.775009155273 165 165 165
16.671875000000 10.562500000000 2.772994995117 170 170 170
16.656250000000 10.562500000000 2.772003173828 167 167 167
16.640625000000 10.578125000000 2.777008056641 172 172 172
16.640625000000 10.578125000000 2.776000976563 171 171 171
19.593750000000 9.093750000000 2.844009399414 131 131 131
19.609375000000 9.078125000000 2.803009033203 249 249 249
19.578125000000 9.093750000000 2.785003662109 227 227 227
19.546875000000 9.109375000000 2.774002075195 201 201 201
19.500000000000 9.140625000000 2.763000488281 200 200 200
19.484375000000 9.156250000000 2.742996215820 198 198 198
19.468750000000 9.171875000000 2.727996826172 196 196 196
19.421875000000 9.203125000000 2.714996337891 197 197 197
19.406250000000 9.203125000000 2.694000244141 190 190 190
19.296875000000 9.265625000000 2.725006103516 213 213 213
19.265625000000 9.281250000000 2.714996337891 196 196 196
19.218750000000 9.328125000000 2.716003417969 186 186 186
19.140625000000 9.359375000000 2.723999023438 190 190 190
19.093750000000 9.390625000000 2.733001708984 189 189 189
19.046875000000 9.421875000000 2.729995727539 175 175 175
19.000000000000 9.453125000000 2.740997314453 186 186 186
18.937500000000 9.484375000000 2.742004394531 198 198 198
18.906250000000 9.500000000000 2.738006591797 193 193 193
18.843750000000 9.515625000000 2.742996215820 198 198 198
18.812500000000 9.562500000000 2.746002197266 193 193 193
18.781250000000 9.578125000000 2.746002197266 192 192 192
18.750000000000 9.609375000000 2.742996215820 173 173 173
18.703125000000 9.625000000000 2.746002197266 181 181 181
18.656250000000 9.656250000000 2.744995117188 178 178 178
18.640625000000 9.671875000000 2.742004394531 185 185 185
18.593750000000 9.703125000000 2.742004394531 200 200 200
18.562500000000 9.718750000000 2.740997314453 181 181 181
18.515625000000 9.734375000000 2.740005493164 175 175 175
18.484375000000 9.765625000000 2.742004394531 180 180 180
18.453125000000 9.781250000000 2.740005493164 178 178 178
18.406250000000 9.796875000000 2.738006591797 177 177 177
18.390625000000 9.828125000000 2.738006591797 180 180 180
18.359375000000 9.843750000000 2.733001708984 173 173 173
18.312500000000 9.859375000000 2.734008789063 178 178 178
18.296875000000 9.875000000000 2.733001708984 176 176 176
18.265625000000 9.906250000000 2.736999511719 177 177 177
18.218750000000 9.921875000000 2.736007690430 178 178 178
18.187500000000 9.953125000000 2.738998413086 181 181 181
18.171875000000 9.953125000000 2.735000610352 174 174 174
18.125000000000 9.968750000000 2.735000610352 180 180 180
18.093750000000 9.984375000000 2.740997314453 177 177 177
18.078125000000 10.015625000000 2.738998413086 175 175 175
18.031250000000 10.031250000000 2.740005493164 179 179 179
18.015625000000 10.046875000000 2.738006591797 178 178 178
18.015625000000 10.062500000000 2.731002807617 171 171 171
17.968750000000 10.078125000000 2.740005493164 175 175 175
17.937500000000 10.093750000000 2.742004394531 179 179 179
17.921875000000 10.109375000000 2.740005493164 175 175 175
17.875000000000 10.125000000000 2.747009277344 199 199 199
17.859375000000 10.140625000000 2.740005493164 187 187 187
17.828125000000 10.156250000000 2.744995117188 189 189 189
17.796875000000 10.187500000000 2.751007080078 188 188 188
17.765625000000 10.203125000000 2.750000000000 188 188 188
17.750000000000 10.218750000000 2.757003784180 167 167 167
17.718750000000 10.234375000000 2.761001586914 167 167 167
17.687500000000 10.234375000000 2.764999389648 169 169 169
17.671875000000 10.265625000000 2.764007568359 175 175 175
17.640625000000 10.265625000000 2.768005371094 176 176 176
17.609375000000 10.296875000000 2.774002075195 174 174 174
17.578125000000 10.312500000000 2.777999877930 164 164 164
17.562500000000 10.328125000000 2.783004760742 158 158 158
17.546875000000 10.328125000000 2.781005859375 168 168 168
17.515625000000 10.343750000000 2.779998779297 169 169 169
17.500000000000 10.359375000000 2.777999877930 161 161 161
17.468750000000 10.375000000000 2.776000976563 169 169 169
17.453125000000 10.390625000000 2.781997680664 165 165 165
17.421875000000 10.390625000000 2.781997680664 160 160 160
17.406250000000 10.421875000000 2.791000366211 159 159 159
17.390625000000 10.437500000000 2.783004760742 160 160 160
17.359375000000 10.453125000000 2.794998168945 172 172 172
17.328125000000 10.453125000000 2.791000366211 185 185 185
17.328125000000 10.453125000000 2.779006958008 173 173 173
17.296875000000 10.484375000000 2.791000366211 168 168 168
17.281250000000 10.484375000000 2.788009643555 173 173 173
