17.937500000000 12.687500000000 2.524000167847 135 135 135
17.875000000000 12.625000000000 2.532999992371 130 130 130
17.875000000000 12.687500000000 2.520999908447 123 123 123
17.812500000000 12.687500000000 2.515999794006 138 138 138
17.812500000000 12.687500000000 2.517000198364 118 118 118
17.750000000000 12.625000000000 2.513000488281 130 130 130
17.750000000000 12.625000000000 2.508000373840 126 126 126
17.687500000000 12.687500000000 2.510000228882 134 134 134
17.625000000000 12.625000000000 2.498000144958 134 134 134
17.625000000000 12.625000000000 2.503000259399 138 138 138
17.625000000000 12.687500000000 2.480999946594 103 103 103
17.562500000000 12.625000000000 2.489999771118 97 97 97
17.500000000000 12.625000000000 2.487000465393 101 101 101
17.500000000000 12.625000000000 2.484999656677 101 101 101
17.437500000000 12.687500000000 2.479000091553 104 104 104
17.375000000000 12.687500000000 2.486000061035 99 99 99
17.375000000000 12.687500000000 2.484999656677 106 106 106
17.312500000000 12.625000000000 2.487000465393 106 106 106
17.250000000000 12.687500000000 2.479999542236 102 102 102
17.250000000000 12.687500000000 2.487000465393 108 108 108
17.187500000000 12.625000000000 2.486000061035 100 100 100
17.125000000000 12.687500000000 2.479999542236 98 98 98
17.125000000000 12.687500000000 2.479999542236 93 93 93
17.062500000000 12.625000000000 2.482000350952 100 100 100
17.000000000000 12.687500000000 2.482000350952 101 101 101
16.937500000000 12.625000000000 2.479000091553 112 112 112
16.937500000000 12.625000000000 2.479999542236 104 104 104
16.875000000000 12.687500000000 2.480999946594 111 111 111
16.812500000000 12.625000000000 2.475999832153 106 106 106
16.750000000000 12.687500000000 2.479000091553 99 99 99
16.687500000000 12.625000000000 2.489000320435 107 107 107
16.625000000000 12.625000000000 2.479000091553 107 107 107
16.562500000000 12.687500000000 2.484000205994 107 107 107
16.562500000000 12.687500000000 2.487999916077 98 98 98
16.500000000000 12.687500000000 2.487000465393 94 94 94
16.437500000000 12.687500000000 2.486000061035 113 113 113
16.375000000000 12.625000000000 2.486000061035 99 99 99
16.312500000000 12.687500000000 2.482999801636 102 102 102
16.187500000000 12.687500000000 2.475999832153 103 103 103
16.187500000000 12.687500000000 2.493000030518 96 96 96
16.125000000000 12.625000000000 2.491000175476 102 102 102
16.000000000000 12.625000000000 2.491000175476 105 105 105
16.000000000000 12.625000000000 2.491999626160 106 106 106
15.875000000000 12.687500000000 2.487000465393 96 96 96
15.750000000000 12.687500000000 2.484999656677 103 103 103
15.687500000000 12.625000000000 2.479999542236 101 101 101
15.625000000000 12.687500000000 2.482999801636 112 112 112
15.562500000000 12.687500000000 2.489999771118 101 101 101
15.437500000000 12.625000000000 2.482000350952 116 116 116
15.312500000000 12.625000000000 2.486000061035 116 116 116
15.187500000000 12.687500000000 2.487999916077 122 122 122
15.062500000000 12.687500000000 2.479000091553 122 122 122
15.000000000000 12.625000000000 2.482999801636 125 125 125
14.875000000000 12.687500000000 2.486000061035 119 119 119
14.750000000000 12.625000000000 2.487000465393 112 112 112
14.625000000000 12.625000000000 2.486000061035 113 113 113
14.500000000000 12.625000000000 2.487999916077 108 108 108
14.375000000000 12.687500000000 2.489999771118 113 113 113
14.250000000000 12.687500000000 2.491999626160 115 115 115
14.062500000000 12.625000000000 2.484000205994 103 103 103
13.875000000000 12.687500000000 2.480999946594 112 112 112
13.687500000000 12.687500000000 2.477999687195 107 107 107
13.437500000000 12.687500000000 2.472000122070 102 102 102
13.250000000000 12.625000000000 2.465000152588 107 107 107
13.062500000000 12.687500000000 2.461999893188 103 103 103
18.125000000000 12.750000000000 2.498000144958 143 143 143
18.125000000000 12.812500000000 2.529999732971 146 146 146
18.062500000000 12.812500000000 2.517999649048 134 134 134
18.062500000000 12.812500000000 2.522999763489 129 129 129
18.000000000000 12.750000000000 2.529000282288 124 124 124
18.000000000000 12.812500000000 2.520000457764 140 140 140
17.937500000000 12.812500000000 2.524000167847 128 128 128
17.875000000000 12.812500000000 2.512000083923 127 127 127
17.875000000000 12.812500000000 2.513999938965 124 124 124
17.812500000000 12.875000000000 2.515999794006 122 122 122
17.812500000000 12.875000000000 2.517000198364 122 122 122
17.750000000000 12.812500000000 2.506999969482 122 122 122
17.750000000000 12.812500000000 2.505999565125 134 134 134
17.687500000000 12.875000000000 2.501999855042 132 132 132
17.625000000000 12.812500000000 2.496999740601 144 144 144
17.625000000000 12.812500000000 2.487000465393 138 138 138
17.562500000000 12.875000000000 2.477000236511 109 109 109
17.562500000000 12.875000000000 2.498999595642 84 84 84
17.500000000000 12.812500000000 2.486000061035 96 96 96
17.500000000000 12.812500000000 2.470999717712 106 106 106
17.375000000000 12.750000000000 2.472999572754 98 98 98
17.375000000000 12.812500000000 2.472999572754 91 91 91
17.375000000000 12.812500000000 2.473999977112 110 110 110
17.312500000000 12.750000000000 2.463000297546 112 112 112
17.250000000000 12.812500000000 2.465999603271 120 120 120
17.250000000000 12.812500000000 2.472000122070 103 103 103
17.187500000000 12.812500000000 2.473999977112 102 102 102
17.125000000000 12.875000000000 2.461000442505 100 100 100
17.125000000000 12.875000000000 2.463999748230 105 105 105
17.062500000000 12.812500000000 2.473999977112 117 117 117
17.000000000000 12.875000000000 2.472999572754 83 83 83
16.937500000000 12.812500000000 2.470999717712 109 109 109
16.937500000000 12.812500000000 2.467000007629 100 100 100
16.875000000000 12.875000000000 2.467000007629 101 101 101
16.812500000000 12.812500000000 2.472999572754 106 106 106
16.750000000000 12.812500000000 2.475000381470 105 105 105
16.687500000000 12.812500000000 2.468999862671 105 105 105
16.687500000000 12.812500000000 2.475000381470 100 100 100
16.625000000000 12.812500000000 2.477000236511 93 93 93
16.562500000000 12.812500000000 2.477999687195 106 106 106
16.437500000000 12.750000000000 2.480999946594 107 107 107
16.437500000000 12.812500000000 2.480999946594 111 111 111
16.312500000000 12.812500000000 2.482999801636 90 90 90
16.312500000000 12.875000000000 2.484999656677 107 107 107
16.187500000000 12.812500000000 2.482999801636 102 102 102
16.125000000000 12.812500000000 2.477000236511 108 108 108
16.062500000000 12.812500000000 2.482000350952 98 98 98
16.000000000000 12.812500000000 2.477999687195 125 125 125
15.937500000000 12.812500000000 2.479999542236 112 112 112
15.875000000000 12.812500000000 2.473999977112 108 108 108
15.750000000000 12.750000000000 2.484000205994 109 109 109
15.687500000000 12.812500000000 2.477000236511 115 115 115
15.625000000000 12.875000000000 2.477000236511 116 116 116
15.500000000000 12.875000000000 2.484000205994 115 115 115
15.437500000000 12.812500000000 2.489000320435 111 111 111
15.312500000000 12.812500000000 2.484000205994 118 118 118
15.250000000000 12.875000000000 2.487000465393 115 115 115
15.125000000000 12.812500000000 2.487000465393 119 119 119
15.000000000000 12.812500000000 2.479999542236 124 124 124
14.875000000000 12.875000000000 2.484999656677 117 117 117
14.750000000000 12.875000000000 2.484000205994 115 115 115
14.625000000000 12.812500000000 2.484999656677 108 108 108
14.500000000000 12.812500000000 2.482999801636 112 112 112
14.375000000000 12.812500000000 2.489000320435 108 108 108
14.250000000000 12.812500000000 2.491000175476 116 116 116
14.125000000000 12.875000000000 2.489000320435 102 102 102
13.937500000000 12.812500000000 2.489000320435 106 106 106
13.687500000000 12.812500000000 2.482000350952 94 94 94
13.500000000000 12.812500000000 2.484000205994 98 98 98
13.312500000000 12.875000000000 2.472000122070 91 91 91
13.062500000000 12.812500000000 2.473999977112 92 92 92
18.125000000000 13.000000000000 2.503000259399 134 134 134
18.125000000000 12.937500000000 2.520000457764 157 157 157
18.062500000000 13.000000000000 2.519000053406 135 135 135
18.062500000000 13.000000000000 2.515000343323 153 153 153
18.062500000000 13.000000000000 2.522000312805 129 129 129
18.000000000000 12.937500000000 2.519000053406 136 136 136
18.000000000000 12.937500000000 2.515999794006 146 146 146
17.937500000000 13.000000000000 2.519000053406 135 135 135
17.937500000000 13.000000000000 2.522000312805 132 132 132
17.875000000000 12.937500000000 2.517000198364 140 140 140
17.875000000000 12.937500000000 2.512000083923 145 145 145
17.812500000000 13.000000000000 2.508999824524 125 125 125
17.750000000000 12.937500000000 2.505000114441 128 128 128
17.750000000000 12.937500000000 2.503000259399 137 137 137
17.750000000000 12.937500000000 2.498000144958 151 151 151
17.687500000000 13.000000000000 2.498000144958 147 147 147
17.625000000000 13.000000000000 2.479000091553 148 148 148
17.562500000000 13.000000000000 2.491000175476 149 149 149
17.562500000000 13.000000000000 2.473999977112 112 112 112
17.500000000000 13.000000000000 2.465999603271 98 98 98
17.437500000000 13.000000000000 2.463000297546 112 112 112
17.375000000000 12.937500000000 2.465999603271 108 108 108
17.375000000000 13.000000000000 2.465000152588 101 101 101
17.375000000000 13.000000000000 2.456999778748 112 112 112
17.250000000000 12.937500000000 2.461000442505 115 115 115
17.250000000000 12.937500000000 2.461000442505 131 131 131
17.250000000000 13.000000000000 2.461000442505 102 102 102
17.125000000000 12.937500000000 2.456000328064 92 92 92
17.125000000000 13.000000000000 2.449999809265 94 94 94
17.125000000000 13.000000000000 2.451999664307 99 99 99
17.062500000000 12.937500000000 2.461999893188 103 103 103
17.000000000000 12.937500000000 2.463000297546 88 88 88
16.937500000000 13.000000000000 2.463000297546 108 108 108
16.875000000000 13.000000000000 2.463999748230 112 112 112
16.875000000000 13.000000000000 2.468000411987 109 109 109
16.812500000000 13.000000000000 2.468000411987 107 107 107
16.750000000000 13.000000000000 2.465000152588 112 112 112
16.687500000000 13.000000000000 2.465000152588 115 115 115
16.625000000000 13.000000000000 2.463999748230 110 110 110
16.562500000000 12.937500000000 2.460000038147 112 112 112
16.562500000000 13.000000000000 2.473999977112 106 106 106
16.500000000000 12.937500000000 2.468000411987 120 120 120
16.437500000000 13.000000000000 2.475000381470 113 113 113
16.375000000000 12.937500000000 2.472999572754 121 121 121
16.312500000000 13.000000000000 2.468000411987 114 114 114
16.187500000000 12.937500000000 2.472000122070 113 113 113
16.125000000000 13.000000000000 2.477000236511 112 112 112
16.062500000000 13.000000000000 2.472999572754 111 111 111
16.000000000000 13.000000000000 2.477000236511 116 116 116
15.937500000000 13.000000000000 2.475000381470 120 120 120
15.875000000000 13.000000000000 2.475000381470 116 116 116
15.750000000000 12.937500000000 2.480999946594 113 113 113
15.687500000000 13.000000000000 2.484000205994 111 111 111
15.625000000000 13.000000000000 2.489000320435 100 100 100
15.500000000000 12.937500000000 2.486000061035 105 105 105
15.437500000000 13.000000000000 2.487999916077 108 108 108
15.375000000000 13.000000000000 2.486000061035 103 103 103
15.250000000000 13.000000000000 2.486000061035 116 116 116
15.125000000000 13.000000000000 2.486000061035 118 118 118
15.000000000000 13.000000000000 2.482999801636 112 112 112
14.937500000000 13.000000000000 2.484999656677 115 115 115
14.812500000000 13.000000000000 2.480999946594 112 112 112
14.625000000000 13.062500000000 2.482000350952 112 112 112
14.500000000000 13.000000000000 2.491000175476 104 104 104
14.375000000000 13.000000000000 2.486000061035 110 110 110
14.250000000000 13.000000000000 2.487000465393 114 114 114
14.062500000000 13.000000000000 2.491000175476 111 111 111
13.875000000000 13.000000000000 2.491999626160 108 108 108
13.750000000000 13.000000000000 2.487999916077 105 105 105
13.562500000000 12.937500000000 2.491000175476 99 99 99
13.312500000000 12.937500000000 2.489000320435 97 97 97
13.125000000000 13.000000000000 2.489999771118 98 98 98
18.125000000000 13.125000000000 2.515999794006 138 138 138
18.125000000000 13.125000000000 2.508000373840 154 154 154
18.062500000000 13.125000000000 2.517999649048 157 157 157
18.062500000000 13.125000000000 2.522999763489 161 161 161
18.062500000000 13.125000000000 2.520999908447 150 150 150
18.000000000000 13.125000000000 2.517999649048 139 139 139
17.937500000000 13.125000000000 2.510999679565 146 146 146
17.937500000000 13.125000000000 2.515999794006 141 141 141
17.937500000000 13.125000000000 2.503999710083 144 144 144
17.875000000000 13.125000000000 2.513000488281 144 144 144
17.875000000000 13.125000000000 2.508999824524 143 143 143
17.812500000000 13.125000000000 2.505999565125 148 148 148
17.812500000000 13.125000000000 2.508999824524 146 146 146
17.750000000000 13.125000000000 2.501000404358 142 142 142
17.687500000000 13.125000000000 2.494000434875 146 146 146
17.687500000000 13.125000000000 2.494000434875 152 152 152
17.625000000000 13.125000000000 2.484999656677 151 151 151
17.625000000000 13.125000000000 2.479000091553 152 152 152
17.562500000000 13.125000000000 2.465000152588 102 102 102
17.500000000000 13.125000000000 2.456999778748 100 100 100
17.500000000000 13.125000000000 2.463999748230 109 109 109
17.437500000000 13.125000000000 2.456000328064 115 115 115
17.375000000000 13.125000000000 2.461000442505 105 105 105
17.312500000000 13.125000000000 2.454000473022 114 114 114
17.250000000000 13.125000000000 2.446000099182 118 118 118
17.250000000000 13.125000000000 2.454999923706 114 114 114
17.187500000000 13.125000000000 2.461000442505 109 109 109
17.125000000000 13.125000000000 2.461999893188 109 109 109
17.125000000000 13.125000000000 2.460000038147 108 108 108
17.125000000000 13.125000000000 2.456999778748 108 108 108
17.000000000000 13.125000000000 2.460000038147 105 105 105
17.000000000000 13.125000000000 2.458999633789 106 106 106
17.000000000000 13.125000000000 2.467000007629 107 107 107
16.875000000000 13.125000000000 2.461999893188 99 99 99
16.875000000000 13.125000000000 2.463999748230 99 99 99
16.812500000000 13.125000000000 2.458000183105 105 105 105
16.750000000000 13.125000000000 2.465999603271 114 114 114
16.687500000000 13.125000000000 2.458999633789 106 106 106
16.625000000000 13.187500000000 2.461999893188 108 108 108
16.562500000000 13.125000000000 2.461000442505 114 114 114
16.562500000000 13.125000000000 2.461000442505 107 107 107
16.500000000000 13.125000000000 2.465999603271 105 105 105
16.437500000000 13.125000000000 2.468000411987 112 112 112
16.375000000000 13.125000000000 2.468000411987 104 104 104
16.312500000000 13.125000000000 2.467000007629 99 99 99
16.250000000000 13.125000000000 2.468999862671 112 112 112
16.187500000000 13.125000000000 2.472000122070 105 105 105
16.125000000000 13.125000000000 2.473999977112 106 106 106
16.000000000000 13.062500000000 2.473999977112 107 107 107
15.937500000000 13.125000000000 2.484000205994 114 114 114
15.875000000000 13.125000000000 2.472000122070 114 114 114
15.812500000000 13.187500000000 2.479999542236 114 114 114
15.687500000000 13.187500000000 2.477999687195 96 96 96
15.625000000000 13.125000000000 2.482999801636 100 100 100
15.500000000000 13.125000000000 2.475999832153 109 109 109
15.437500000000 13.125000000000 2.484000205994 99 99 99
15.375000000000 13.125000000000 2.487999916077 101 101 101
15.250000000000 13.125000000000 2.487999916077 112 112 112
15.125000000000 13.187500000000 2.487999916077 125 125 125
15.062500000000 13.125000000000 2.489000320435 108 108 108
14.937500000000 13.125000000000 2.484000205994 114 114 114
14.812500000000 13.125000000000 2.487999916077 110 110 110
14.687500000000 13.125000000000 2.489999771118 110 110 110
14.562500000000 13.125000000000 2.486000061035 115 115 115
14.375000000000 13.125000000000 2.487000465393 113 113 113
14.250000000000 13.125000000000 2.498000144958 109 109 109
14.125000000000 13.125000000000 2.496999740601 106 106 106
13.937500000000 13.125000000000 2.496000289917 104 104 104
13.750000000000 13.125000000000 2.494999885559 102 102 102
13.562500000000 13.125000000000 2.493000030518 98 98 98
13.375000000000 13.187500000000 2.491999626160 98 98 98
13.187500000000 13.125000000000 2.489999771118 95 95 95
18.125000000000 13.250000000000 2.503999710083 144 144 144
18.125000000000 13.312500000000 2.508000373840 157 157 157
18.062500000000 13.250000000000 2.517999649048 158 158 158
18.062500000000 13.250000000000 2.522000312805 154 154 154
18.062500000000 13.250000000000 2.520000457764 141 141 141
18.000000000000 13.250000000000 2.513000488281 147 147 147
17.937500000000 13.250000000000 2.510000228882 151 151 151
17.937500000000 13.250000000000 2.505000114441 150 150 150
17.937500000000 13.250000000000 2.520000457764 146 146 146
17.875000000000 13.250000000000 2.505999565125 149 149 149
17.812500000000 13.312500000000 2.505000114441 146 146 146
17.812500000000 13.312500000000 2.506999969482 147 147 147
17.812500000000 13.312500000000 2.498000144958 143 143 143
17.750000000000 13.250000000000 2.498000144958 148 148 148
17.687500000000 13.312500000000 2.494000434875 154 154 154
17.687500000000 13.312500000000 2.489000320435 153 153 153
17.625000000000 13.250000000000 2.482999801636 153 153 153
17.625000000000 13.250000000000 2.475999832153 121 121 121
17.562500000000 13.312500000000 2.458000183105 99 99 99
17.500000000000 13.250000000000 2.461999893188 103 103 103
17.500000000000 13.250000000000 2.458000183105 97 97 97
17.437500000000 13.312500000000 2.456000328064 106 106 106
17.375000000000 13.250000000000 2.454000473022 110 110 110
17.375000000000 13.250000000000 2.461000442505 108 108 108
17.312500000000 13.312500000000 2.449999809265 100 100 100
17.250000000000 13.250000000000 2.451999664307 114 114 114
17.250000000000 13.250000000000 2.444999694824 113 113 113
17.187500000000 13.312500000000 2.453000068665 96 96 96
17.125000000000 13.312500000000 2.449000358582 93 93 93
17.062500000000 13.312500000000 2.449000358582 107 107 107
17.000000000000 13.250000000000 2.454000473022 125 125 125
17.000000000000 13.312500000000 2.449999809265 102 102 102
16.937500000000 13.312500000000 2.458000183105 100 100 100
16.875000000000 13.312500000000 2.449000358582 100 100 100
16.875000000000 13.312500000000 2.458000183105 99 99 99
16.750000000000 13.250000000000 2.460000038147 97 97 97
16.750000000000 13.312500000000 2.456000328064 93 93 93
16.687500000000 13.250000000000 2.465000152588 97 97 97
16.625000000000 13.250000000000 2.465000152588 98 98 98
16.625000000000 13.312500000000 2.465999603271 92 92 92
16.562500000000 13.250000000000 2.465999603271 81 81 81
16.500000000000 13.312500000000 2.468999862671 103 103 103
16.437500000000 13.312500000000 2.470000267029 98 98 98
16.375000000000 13.375000000000 2.473999977112 101 101 101
16.312500000000 13.312500000000 2.467000007629 101 101 101
16.250000000000 13.250000000000 2.472999572754 109 109 109
16.187500000000 13.312500000000 2.479000091553 108 108 108
16.125000000000 13.250000000000 2.477000236511 92 92 92
16.062500000000 13.312500000000 2.473999977112 119 119 119
15.937500000000 13.250000000000 2.477999687195 98 98 98
15.875000000000 13.250000000000 2.475999832153 109 109 109
15.812500000000 13.312500000000 2.487000465393 115 115 115
15.687500000000 13.250000000000 2.487000465393 106 106 106
15.625000000000 13.312500000000 2.484999656677 109 109 109
15.562500000000 13.375000000000 2.489999771118 111 111 111
15.437500000000 13.312500000000 2.491000175476 118 118 118
15.375000000000 13.312500000000 2.484999656677 108 108 108
15.250000000000 13.250000000000 2.494000434875 105 105 105
15.125000000000 13.250000000000 2.489000320435 102 102 102
15.000000000000 13.250000000000 2.489999771118 108 108 108
14.937500000000 13.312500000000 2.489999771118 110 110 110
14.812500000000 13.312500000000 2.498000144958 107 107 107
14.687500000000 13.312500000000 2.498999595642 112 112 112
14.562500000000 13.312500000000 2.494999885559 105 105 105
14.437500000000 13.312500000000 2.501000404358 105 105 105
14.250000000000 13.312500000000 2.494999885559 111 111 111
14.125000000000 13.312500000000 2.496999740601 96 96 96
13.937500000000 13.312500000000 2.496000289917 105 105 105
13.750000000000 13.250000000000 2.491999626160 109 109 109
13.562500000000 13.250000000000 2.491000175476 107 107 107
13.375000000000 13.312500000000 2.484000205994 108 108 108
13.125000000000 13.312500000000 2.477000236511 101 101 101
18.125000000000 13.437500000000 2.506999969482 151 151 151
18.125000000000 13.437500000000 2.506999969482 154 154 154
18.125000000000 13.437500000000 2.503999710083 149 149 149
18.062500000000 13.437500000000 2.520000457764 151 151 151
18.062500000000 13.437500000000 2.517999649048 152 152 152
18.000000000000 13.437500000000 2.505000114441 151 151 151
18.000000000000 13.437500000000 2.512000083923 151 151 151
17.937500000000 13.375000000000 2.510999679565 153 153 153
17.937500000000 13.437500000000 2.513000488281 149 149 149
17.875000000000 13.437500000000 2.505999565125 145 145 145
17.875000000000 13.437500000000 2.506999969482 148 148 148
17.812500000000 13.375000000000 2.498000144958 151 151 151
17.812500000000 13.437500000000 2.501999855042 151 151 151
17.750000000000 13.437500000000 2.496000289917 147 147 147
17.750000000000 13.375000000000 2.493000030518 148 148 148
17.687500000000 13.375000000000 2.496999740601 153 153 153
17.687500000000 13.437500000000 2.491000175476 153 153 153
17.625000000000 13.437500000000 2.475000381470 151 151 151
17.562500000000 13.437500000000 2.467000007629 104 104 104
17.562500000000 13.500000000000 2.468000411987 93 93 93
17.500000000000 13.437500000000 2.470999717712 112 112 112
17.500000000000 13.437500000000 2.465999603271 106 106 106
17.437500000000 13.500000000000 2.456000328064 97 97 97
17.375000000000 13.437500000000 2.460000038147 117 117 117
17.375000000000 13.437500000000 2.451999664307 111 111 111
17.312500000000 13.437500000000 2.451000213623 99 99 99
17.250000000000 13.437500000000 2.446000099182 104 104 104
17.250000000000 13.437500000000 2.449999809265 115 115 115
17.125000000000 13.375000000000 2.439999580383 97 97 97
17.125000000000 13.437500000000 2.446000099182 90 90 90
17.125000000000 13.437500000000 2.444999694824 99 99 99
17.062500000000 13.375000000000 2.449999809265 108 108 108
17.000000000000 13.437500000000 2.451000213623 102 102 102
17.000000000000 13.437500000000 2.449000358582 102 102 102
16.875000000000 13.437500000000 2.454000473022 99 99 99
16.812500000000 13.500000000000 2.451000213623 106 106 106
16.750000000000 13.437500000000 2.451999664307 99 99 99
16.750000000000 13.437500000000 2.456999778748 104 104 104
16.687500000000 13.500000000000 2.460000038147 110 110 110
16.625000000000 13.437500000000 2.472999572754 97 97 97
16.625000000000 13.500000000000 2.463999748230 104 104 104
16.500000000000 13.437500000000 2.470000267029 98 98 98
16.500000000000 13.437500000000 2.463999748230 114 114 114
16.437500000000 13.437500000000 2.472999572754 113 113 113
16.375000000000 13.437500000000 2.468999862671 110 110 110
16.312500000000 13.437500000000 2.472999572754 93 93 93
16.250000000000 13.437500000000 2.472999572754 115 115 115
16.187500000000 13.500000000000 2.480999946594 101 101 101
16.125000000000 13.437500000000 2.477999687195 107 107 107
16.062500000000 13.500000000000 2.482999801636 112 112 112
15.937500000000 13.437500000000 2.484999656677 112 112 112
15.937500000000 13.500000000000 2.487999916077 111 111 111
15.812500000000 13.437500000000 2.493000030518 112 112 112
15.750000000000 13.437500000000 2.486000061035 118 118 118
15.625000000000 13.375000000000 2.491000175476 109 109 109
15.562500000000 13.437500000000 2.493000030518 111 111 111
15.437500000000 13.437500000000 2.493000030518 111 111 111
15.375000000000 13.500000000000 2.494999885559 99 99 99
15.250000000000 13.437500000000 2.496000289917 104 104 104
15.125000000000 13.437500000000 2.494000434875 113 113 113
15.000000000000 13.437500000000 2.489999771118 111 111 111
14.937500000000 13.437500000000 2.489999771118 112 112 112
14.812500000000 13.375000000000 2.493000030518 119 119 119
14.687500000000 13.437500000000 2.494000434875 121 121 121
14.562500000000 13.437500000000 2.491999626160 111 111 111
14.437500000000 13.500000000000 2.489000320435 114 114 114
14.250000000000 13.375000000000 2.489999771118 115 115 115
14.125000000000 13.437500000000 2.491000175476 115 115 115
13.937500000000 13.500000000000 2.489000320435 102 102 102
13.750000000000 13.437500000000 2.487999916077 115 115 115
13.562500000000 13.500000000000 2.489999771118 103 103 103
13.375000000000 13.437500000000 2.479000091553 110 110 110
13.125000000000 13.500000000000 2.472000122070 104 104 104
18.125000000000 13.625000000000 2.503999710083 149 149 149
18.125000000000 13.625000000000 2.520000457764 154 154 154
18.000000000000 13.625000000000 2.512000083923 150 150 150
18.000000000000 13.625000000000 2.505999565125 154 154 154
18.000000000000 13.625000000000 2.508999824524 156 156 156
17.937500000000 13.562500000000 2.513000488281 154 154 154
17.937500000000 13.562500000000 2.506999969482 147 147 147
17.875000000000 13.625000000000 2.505000114441 146 146 146
17.875000000000 13.625000000000 2.503999710083 145 145 145
17.812500000000 13.562500000000 2.501999855042 148 148 148
17.812500000000 13.562500000000 2.496000289917 150 150 150
17.750000000000 13.625000000000 2.494000434875 153 153 153
17.750000000000 13.562500000000 2.496999740601 150 150 150
17.687500000000 13.562500000000 2.494999885559 153 153 153
17.687500000000 13.562500000000 2.489999771118 151 151 151
17.625000000000 13.625000000000 2.477999687195 151 151 151
17.562500000000 13.562500000000 2.465999603271 111 111 111
17.562500000000 13.562500000000 2.460000038147 118 118 118
17.500000000000 13.625000000000 2.463000297546 101 101 101
17.437500000000 13.562500000000 2.456000328064 104 104 104
17.437500000000 13.562500000000 2.458999633789 96 96 96
17.375000000000 13.625000000000 2.456000328064 96 96 96
17.375000000000 13.625000000000 2.451000213623 106 106 106
17.312500000000 13.625000000000 2.449000358582 98 98 98
17.250000000000 13.562500000000 2.454000473022 86 86 86
17.250000000000 13.625000000000 2.444000244141 106 106 106
17.187500000000 13.625000000000 2.456000328064 102 102 102
17.125000000000 13.562500000000 2.453000068665 92 92 92
17.125000000000 13.625000000000 2.446999549866 89 89 89
17.062500000000 13.625000000000 2.451999664307 98 98 98
17.000000000000 13.562500000000 2.456000328064 86 86 86
16.937500000000 13.625000000000 2.447999954224 106 106 106
16.875000000000 13.562500000000 2.458999633789 105 105 105
16.875000000000 13.562500000000 2.463999748230 97 97 97
16.812500000000 13.625000000000 2.460000038147 103 103 103
16.750000000000 13.562500000000 2.465000152588 96 96 96
16.750000000000 13.625000000000 2.461000442505 110 110 110
16.625000000000 13.625000000000 2.465999603271 90 90 90
16.625000000000 13.625000000000 2.475000381470 98 98 98
16.500000000000 13.625000000000 2.468000411987 103 103 103
16.500000000000 13.625000000000 2.465999603271 96 96 96
16.375000000000 13.625000000000 2.472000122070 104 104 104
16.375000000000 13.625000000000 2.472000122070 104 104 104
16.250000000000 13.562500000000 2.472000122070 116 116 116
16.250000000000 13.625000000000 2.493000030518 103 103 103
16.187500000000 13.562500000000 2.486000061035 93 93 93
16.125000000000 13.625000000000 2.484000205994 103 103 103
16.062500000000 13.562500000000 2.486000061035 103 103 103
16.000000000000 13.625000000000 2.496000289917 106 106 106
15.937500000000 13.625000000000 2.494000434875 105 105 105
15.812500000000 13.625000000000 2.489999771118 110 110 110
15.750000000000 13.625000000000 2.489999771118 112 112 112
15.687500000000 13.625000000000 2.491000175476 116 116 116
15.562500000000 13.625000000000 2.494000434875 112 112 112
15.500000000000 13.625000000000 2.489999771118 104 104 104
15.375000000000 13.562500000000 2.489999771118 121 121 121
15.250000000000 13.562500000000 2.484000205994 116 116 116
15.125000000000 13.625000000000 2.489999771118 121 121 121
15.000000000000 13.625000000000 2.487000465393 117 117 117
14.875000000000 13.562500000000 2.489999771118 117 117 117
14.750000000000 13.562500000000 2.484999656677 124 124 124
14.625000000000 13.562500000000 2.484999656677 115 115 115
14.562500000000 13.562500000000 2.494999885559 108 108 108
14.437500000000 13.625000000000 2.487999916077 121 121 121
14.250000000000 13.625000000000 2.489000320435 116 116 116
14.125000000000 13.562500000000 2.494999885559 109 109 109
13.937500000000 13.625000000000 2.489999771118 109 109 109
13.750000000000 13.625000000000 2.477000236511 114 114 114
13.500000000000 13.562500000000 2.480999946594 110 110 110
13.375000000000 13.625000000000 2.475999832153 109 109 109
13.125000000000 13.625000000000 2.472000122070 99 99 99
18.125000000000 13.750000000000 2.501000404358 151 151 151
18.125000000000 13.750000000000 2.494000434875 140 140 140
18.125000000000 13.750000000000 2.513000488281 157 157 157
18.062500000000 13.687500000000 2.510000228882 151 151 151
18.000000000000 13.750000000000 2.513000488281 145 145 145
18.000000000000 13.750000000000 2.503999710083 150 150 150
18.000000000000 13.750000000000 2.506999969482 154 154 154
17.937500000000 13.750000000000 2.508999824524 153 153 153
17.937500000000 13.750000000000 2.506999969482 143 143 143
17.875000000000 13.812500000000 2.498000144958 150 150 150
17.812500000000 13.750000000000 2.494999885559 148 148 148
17.750000000000 13.750000000000 2.491999626160 146 146 146
17.750000000000 13.750000000000 2.494999885559 154 154 154
17.750000000000 13.812500000000 2.482999801636 143 143 143
17.687500000000 13.750000000000 2.487000465393 153 153 153
17.625000000000 13.750000000000 2.482000350952 157 157 157
17.625000000000 13.750000000000 2.468000411987 153 153 153
17.562500000000 13.750000000000 2.463000297546 123 123 123
17.562500000000 13.750000000000 2.456999778748 108 108 108
17.500000000000 13.750000000000 2.463999748230 111 111 111
17.437500000000 13.750000000000 2.458000183105 89 89 89
17.437500000000 13.750000000000 2.458000183105 101 101 101
17.375000000000 13.750000000000 2.461000442505 105 105 105
17.375000000000 13.687500000000 2.458999633789 122 122 122
17.312500000000 13.750000000000 2.454999923706 96 96 96
17.250000000000 13.750000000000 2.453000068665 94 94 94
17.250000000000 13.687500000000 2.461000442505 99 99 99
17.187500000000 13.750000000000 2.454000473022 97 97 97
17.125000000000 13.750000000000 2.454999923706 100 100 100
17.125000000000 13.750000000000 2.458999633789 101 101 101
17.062500000000 13.750000000000 2.458000183105 117 117 117
17.000000000000 13.750000000000 2.447999954224 108 108 108
16.937500000000 13.750000000000 2.456999778748 105 105 105
16.875000000000 13.750000000000 2.456999778748 105 105 105
16.875000000000 13.750000000000 2.465000152588 109 109 109
16.812500000000 13.750000000000 2.456000328064 108 108 108
16.750000000000 13.750000000000 2.463999748230 110 110 110
16.750000000000 13.750000000000 2.463000297546 117 117 117
16.625000000000 13.750000000000 2.465999603271 110 110 110
16.625000000000 13.750000000000 2.463999748230 117 117 117
16.562500000000 13.687500000000 2.467000007629 112 112 112
16.500000000000 13.750000000000 2.468999862671 111 111 111
16.375000000000 13.750000000000 2.470000267029 104 104 104
16.375000000000 13.750000000000 2.477999687195 109 109 109
16.312500000000 13.750000000000 2.477999687195 105 105 105
16.250000000000 13.750000000000 2.482000350952 109 109 109
16.125000000000 13.750000000000 2.477999687195 103 103 103
16.125000000000 13.812500000000 2.477000236511 101 101 101
16.000000000000 13.750000000000 2.482000350952 109 109 109
15.937500000000 13.750000000000 2.484000205994 115 115 115
15.875000000000 13.750000000000 2.484000205994 105 105 105
15.812500000000 13.750000000000 2.496000289917 101 101 101
15.750000000000 13.750000000000 2.487999916077 106 106 106
15.625000000000 13.812500000000 2.486000061035 106 106 106
15.562500000000 13.812500000000 2.480999946594 117 117 117
15.437500000000 13.750000000000 2.487000465393 108 108 108
15.375000000000 13.750000000000 2.489999771118 123 123 123
15.250000000000 13.750000000000 2.487999916077 126 126 126
15.125000000000 13.750000000000 2.487999916077 117 117 117
15.062500000000 13.750000000000 2.491000175476 116 116 116
14.875000000000 13.750000000000 2.487999916077 120 120 120
14.812500000000 13.750000000000 2.493000030518 116 116 116
14.625000000000 13.750000000000 2.482999801636 112 112 112
14.500000000000 13.750000000000 2.475999832153 111 111 111
14.375000000000 13.750000000000 2.475000381470 113 113 113
14.187500000000 13.750000000000 2.475999832153 119 119 119
14.062500000000 13.750000000000 2.479000091553 108 108 108
13.937500000000 13.750000000000 2.482999801636 101 101 101
13.750000000000 13.750000000000 2.482000350952 91 91 91
13.562500000000 13.750000000000 2.479000091553 101 101 101
13.312500000000 13.812500000000 2.470999717712 106 106 106
13.125000000000 13.750000000000 2.472000122070 100 100 100
18.125000000000 13.875000000000 2.503999710083 146 146 146
18.125000000000 13.875000000000 2.500000000000 148 148 148
18.125000000000 13.937500000000 2.494999885559 151 151 151
18.125000000000 13.937500000000 2.508000373840 144 144 144
18.062500000000 13.875000000000 2.505999565125 153 153 153
18.000000000000 13.875000000000 2.513999938965 139 139 139
18.000000000000 13.875000000000 2.500000000000 145 145 145
18.000000000000 13.937500000000 2.498999595642 141 141 141
17.937500000000 13.875000000000 2.503999710083 147 147 147
17.875000000000 13.875000000000 2.503000259399 143 143 143
17.875000000000 13.875000000000 2.493000030518 146 146 146
17.875000000000 13.875000000000 2.496000289917 146 146 146
17.812500000000 13.875000000000 2.494000434875 149 149 149
17.750000000000 13.875000000000 2.491000175476 149 149 149
17.750000000000 13.875000000000 2.489999771118 141 141 141
17.687500000000 13.937500000000 2.486000061035 151 151 151
17.687500000000 13.937500000000 2.473999977112 156 156 156
17.625000000000 13.937500000000 2.470000267029 138 138 138
17.562500000000 13.875000000000 2.460000038147 106 106 106
17.500000000000 13.937500000000 2.454999923706 101 101 101
17.500000000000 13.937500000000 2.461999893188 109 109 109
17.437500000000 13.875000000000 2.461000442505 93 93 93
17.437500000000 13.875000000000 2.461000442505 102 102 102
17.375000000000 13.937500000000 2.454999923706 97 97 97
17.312500000000 13.875000000000 2.458000183105 116 116 116
17.312500000000 13.875000000000 2.454000473022 114 114 114
17.250000000000 13.937500000000 2.451999664307 113 113 113
17.187500000000 13.875000000000 2.451999664307 105 105 105
17.187500000000 13.875000000000 2.449000358582 108 108 108
17.125000000000 13.937500000000 2.456999778748 104 104 104
17.062500000000 13.875000000000 2.446000099182 102 102 102
17.062500000000 13.875000000000 2.458000183105 96 96 96
17.000000000000 13.875000000000 2.454000473022 99 99 99
16.937500000000 13.875000000000 2.456000328064 89 89 89
16.937500000000 13.875000000000 2.454999923706 104 104 104
16.875000000000 13.937500000000 2.456000328064 113 113 113
16.812500000000 13.937500000000 2.461999893188 122 122 122
16.750000000000 13.937500000000 2.447999954224 121 121 121
16.687500000000 13.937500000000 2.461000442505 114 114 114
16.625000000000 13.875000000000 2.461000442505 111 111 111
16.625000000000 13.937500000000 2.463999748230 111 111 111
16.562500000000 13.875000000000 2.465000152588 114 114 114
16.500000000000 13.875000000000 2.467000007629 110 110 110
16.437500000000 13.875000000000 2.463000297546 106 106 106
16.375000000000 13.875000000000 2.472999572754 104 104 104
16.312500000000 13.875000000000 2.465000152588 92 92 92
16.250000000000 13.875000000000 2.479000091553 107 107 107
16.125000000000 13.937500000000 2.472000122070 88 88 88
16.062500000000 13.937500000000 2.470000267029 106 106 106
16.000000000000 13.937500000000 2.479000091553 117 117 117
15.937500000000 13.875000000000 2.475000381470 119 119 119
15.875000000000 13.937500000000 2.480999946594 117 117 117
15.812500000000 13.875000000000 2.480999946594 103 103 103
15.687500000000 13.875000000000 2.477999687195 105 105 105
15.625000000000 13.937500000000 2.479999542236 124 124 124
15.562500000000 13.875000000000 2.482999801636 111 111 111
15.437500000000 13.937500000000 2.484999656677 107 107 107
15.375000000000 13.937500000000 2.489999771118 107 107 107
15.250000000000 13.875000000000 2.486000061035 104 104 104
15.125000000000 13.875000000000 2.486000061035 108 108 108
15.000000000000 13.875000000000 2.482000350952 115 115 115
14.875000000000 13.875000000000 2.475999832153 107 107 107
14.750000000000 13.875000000000 2.477000236511 112 112 112
14.625000000000 13.937500000000 2.482000350952 102 102 102
14.500000000000 13.937500000000 2.477999687195 104 104 104
14.375000000000 13.937500000000 2.482000350952 105 105 105
14.250000000000 13.937500000000 2.486000061035 99 99 99
14.062500000000 13.875000000000 2.479999542236 106 106 106
13.937500000000 13.937500000000 2.480999946594 94 94 94
13.750000000000 13.875000000000 2.480999946594 107 107 107
13.562500000000 13.937500000000 2.482000350952 100 100 100
13.375000000000 13.875000000000 2.477000236511 99 99 99
13.125000000000 13.937500000000 2.472000122070 97 97 97
18.125000000000 14.062500000000 2.503000259399 137 137 137
18.125000000000 14.062500000000 2.508999824524 150 150 150
18.125000000000 14.062500000000 2.494999885559 143 143 143
18.062500000000 14.125000000000 2.505999565125 152 152 152
18.062500000000 14.062500000000 2.505000114441 154 154 154
18.000000000000 14.062500000000 2.508999824524 143 143 143
18.000000000000 14.062500000000 2.498999595642 140 140 140
18.000000000000 14.062500000000 2.498000144958 143 143 143
17.937500000000 14.062500000000 2.494999885559 143 143 143
17.875000000000 14.062500000000 2.496999740601 145 145 145
17.875000000000 14.062500000000 2.493000030518 146 146 146
17.875000000000 14.062500000000 2.498999595642 145 145 145
17.812500000000 14.000000000000 2.501000404358 146 146 146
17.750000000000 14.062500000000 2.493000030518 141 141 141
17.750000000000 14.062500000000 2.493000030518 145 145 145
17.687500000000 14.000000000000 2.479999542236 148 148 148
17.687500000000 14.062500000000 2.482000350952 148 148 148
17.625000000000 14.062500000000 2.468000411987 145 145 145
17.562500000000 14.000000000000 2.458000183105 111 111 111
17.562500000000 14.000000000000 2.461999893188 92 92 92
17.500000000000 14.062500000000 2.449999809265 100 100 100
17.437500000000 14.062500000000 2.454000473022 116 116 116
17.437500000000 14.062500000000 2.449999809265 98 98 98
17.437500000000 14.125000000000 2.454999923706 100 100 100
17.312500000000 14.062500000000 2.449000358582 97 97 97
17.312500000000 14.062500000000 2.460000038147 90 90 90
17.250000000000 14.062500000000 2.458999633789 106 106 106
17.187500000000 14.062500000000 2.451000213623 103 103 103
17.187500000000 14.062500000000 2.458999633789 110 110 110
17.125000000000 14.062500000000 2.460000038147 109 109 109
17.062500000000 14.062500000000 2.451000213623 109 109 109
17.062500000000 14.062500000000 2.454000473022 110 110 110
17.000000000000 14.000000000000 2.453000068665 117 117 117
16.937500000000 14.062500000000 2.461999893188 91 91 91
16.937500000000 14.062500000000 2.460000038147 100 100 100
16.875000000000 14.000000000000 2.465000152588 112 112 112
16.812500000000 14.062500000000 2.458000183105 102 102 102
16.750000000000 14.000000000000 2.454999923706 95 95 95
16.750000000000 14.000000000000 2.470000267029 105 105 105
16.625000000000 14.062500000000 2.456999778748 101 101 101
16.625000000000 14.062500000000 2.461000442505 111 111 111
16.562500000000 14.125000000000 2.465000152588 99 99 99
16.500000000000 14.062500000000 2.458999633789 105 105 105
16.437500000000 14.125000000000 2.470000267029 102 102 102
16.375000000000 14.062500000000 2.467000007629 105 105 105
16.312500000000 14.062500000000 2.463999748230 104 104 104
16.250000000000 14.062500000000 2.472000122070 99 99 99
16.187500000000 14.000000000000 2.472999572754 103 103 103
16.125000000000 14.062500000000 2.484999656677 94 94 94
16.062500000000 14.000000000000 2.477000236511 107 107 107
16.000000000000 14.062500000000 2.482999801636 108 108 108
15.875000000000 14.125000000000 2.479000091553 108 108 108
15.750000000000 14.062500000000 2.477000236511 98 98 98
15.750000000000 14.125000000000 2.484999656677 110 110 110
15.625000000000 14.125000000000 2.477999687195 111 111 111
15.500000000000 14.062500000000 2.472000122070 117 117 117
15.437500000000 14.062500000000 2.479999542236 106 106 106
15.375000000000 14.000000000000 2.479000091553 108 108 108
15.250000000000 14.062500000000 2.484999656677 117 117 117
15.187500000000 14.125000000000 2.487999916077 115 115 115
15.062500000000 14.125000000000 2.484000205994 110 110 110
14.937500000000 14.125000000000 2.482000350952 113 113 113
14.812500000000 14.125000000000 2.480999946594 120 120 120
14.687500000000 14.062500000000 2.493000030518 138 138 138
14.500000000000 14.000000000000 2.480999946594 112 112 112
14.375000000000 14.062500000000 2.486000061035 103 103 103
14.250000000000 14.125000000000 2.482000350952 122 122 122
14.062500000000 14.062500000000 2.482000350952 105 105 105
13.937500000000 14.062500000000 2.479000091553 113 113 113
13.750000000000 14.062500000000 2.479000091553 107 107 107
13.562500000000 14.125000000000 2.477999687195 110 110 110
13.375000000000 14.062500000000 2.473999977112 104 104 104
13.125000000000 14.062500000000 2.473999977112 100 100 100
18.125000000000 14.187500000000 2.491999626160 127 127 127
18.125000000000 14.187500000000 2.500000000000 141 141 141
18.125000000000 14.187500000000 2.501000404358 144 144 144
18.062500000000 14.187500000000 2.498000144958 162 162 162
18.062500000000 14.187500000000 2.505999565125 138 138 138
18.000000000000 14.187500000000 2.503000259399 135 135 135
18.000000000000 14.187500000000 2.486000061035 134 134 134
17.937500000000 14.187500000000 2.494000434875 148 148 148
17.937500000000 14.187500000000 2.494999885559 145 145 145
17.875000000000 14.250000000000 2.494000434875 149 149 149
17.875000000000 14.250000000000 2.498999595642 149 149 149
17.875000000000 14.250000000000 2.494000434875 144 144 144
17.812500000000 14.187500000000 2.484999656677 141 141 141
17.750000000000 14.250000000000 2.494000434875 137 137 137
17.750000000000 14.250000000000 2.482999801636 137 137 137
17.687500000000 14.187500000000 2.477999687195 149 149 149
17.625000000000 14.187500000000 2.477999687195 151 151 151
17.625000000000 14.250000000000 2.467000007629 144 144 144
17.625000000000 14.250000000000 2.461999893188 112 112 112
17.500000000000 14.187500000000 2.446000099182 115 115 115
17.500000000000 14.250000000000 2.442999839783 113 113 113
17.437500000000 14.187500000000 2.451000213623 107 107 107
17.437500000000 14.187500000000 2.451000213623 114 114 114
17.375000000000 14.187500000000 2.444999694824 105 105 105
17.312500000000 14.187500000000 2.449999809265 108 108 108
17.312500000000 14.187500000000 2.444999694824 110 110 110
17.250000000000 14.187500000000 2.444000244141 117 117 117
17.250000000000 14.250000000000 2.454000473022 111 111 111
17.187500000000 14.250000000000 2.446000099182 103 103 103
17.187500000000 14.250000000000 2.444000244141 114 114 114
17.062500000000 14.250000000000 2.446999549866 110 110 110
17.000000000000 14.250000000000 2.444999694824 113 113 113
17.000000000000 14.250000000000 2.449000358582 99 99 99
16.937500000000 14.250000000000 2.451000213623 113 113 113
16.875000000000 14.250000000000 2.447999954224 98 98 98
16.812500000000 14.187500000000 2.449999809265 101 101 101
16.812500000000 14.250000000000 2.454000473022 123 123 123
16.750000000000 14.187500000000 2.456999778748 108 108 108
16.687500000000 14.187500000000 2.451999664307 109 109 109
16.625000000000 14.250000000000 2.454000473022 109 109 109
16.562500000000 14.187500000000 2.453000068665 112 112 112
16.562500000000 14.250000000000 2.458999633789 105 105 105
16.500000000000 14.187500000000 2.460000038147 111 111 111
16.437500000000 14.187500000000 2.468000411987 104 104 104
16.375000000000 14.250000000000 2.463999748230 114 114 114
16.312500000000 14.250000000000 2.467000007629 105 105 105
16.250000000000 14.250000000000 2.475000381470 95 95 95
16.125000000000 14.187500000000 2.465000152588 105 105 105
16.125000000000 14.250000000000 2.463999748230 112 112 112
16.000000000000 14.187500000000 2.470000267029 107 107 107
16.000000000000 14.250000000000 2.468999862671 104 104 104
15.875000000000 14.187500000000 2.477999687195 96 96 96
15.812500000000 14.187500000000 2.480999946594 106 106 106
15.750000000000 14.250000000000 2.484000205994 105 105 105
15.625000000000 14.250000000000 2.477000236511 105 105 105
15.500000000000 14.250000000000 2.480999946594 112 112 112
15.437500000000 14.250000000000 2.482000350952 154 154 154
15.312500000000 14.187500000000 2.475999832153 108 108 108
15.250000000000 14.187500000000 2.475999832153 107 107 107
15.125000000000 14.250000000000 2.477000236511 109 109 109
15.062500000000 14.250000000000 2.472999572754 117 117 117
14.937500000000 14.250000000000 2.477000236511 112 112 112
14.812500000000 14.250000000000 2.477999687195 103 103 103
14.625000000000 14.187500000000 2.475000381470 102 102 102
14.500000000000 14.187500000000 2.477000236511 114 114 114
14.375000000000 14.187500000000 2.477999687195 105 105 105
14.250000000000 14.187500000000 2.470999717712 109 109 109
14.062500000000 14.250000000000 2.465999603271 108 108 108
13.875000000000 14.250000000000 2.473999977112 109 109 109
13.750000000000 14.250000000000 2.479000091553 111 111 111
13.562500000000 14.187500000000 2.473999977112 106 106 106
13.375000000000 14.250000000000 2.472000122070 97 97 97
13.125000000000 14.250000000000 2.468999862671 99 99 99
18.125000000000 14.375000000000 2.489000320435 120 120 120
18.125000000000 14.375000000000 2.494999885559 140 140 140
18.062500000000 14.375000000000 2.505000114441 152 152 152
18.062500000000 14.375000000000 2.500000000000 136 136 136
18.000000000000 14.375000000000 2.491999626160 135 135 135
18.000000000000 14.375000000000 2.496999740601 144 144 144
17.937500000000 14.375000000000 2.493000030518 140 140 140
17.937500000000 14.375000000000 2.494999885559 138 138 138
17.875000000000 14.312500000000 2.500000000000 127 127 127
17.875000000000 14.375000000000 2.491999626160 147 147 147
17.812500000000 14.375000000000 2.494999885559 143 143 143
17.812500000000 14.312500000000 2.487999916077 132 132 132
17.750000000000 14.312500000000 2.489999771118 127 127 127
17.750000000000 14.375000000000 2.489000320435 126 126 126
17.687500000000 14.375000000000 2.477999687195 139 139 139
17.625000000000 14.375000000000 2.472999572754 147 147 147
17.625000000000 14.375000000000 2.470000267029 146 146 146
17.625000000000 14.437500000000 2.465999603271 89 89 89
17.562500000000 14.375000000000 2.468999862671 114 114 114
17.500000000000 14.375000000000 2.460000038147 102 102 102
17.500000000000 14.375000000000 2.451000213623 107 107 107
17.437500000000 14.375000000000 2.456000328064 110 110 110
17.375000000000 14.375000000000 2.460000038147 96 96 96
17.375000000000 14.375000000000 2.449000358582 95 95 95
17.312500000000 14.375000000000 2.454000473022 103 103 103
17.250000000000 14.375000000000 2.447999954224 99 99 99
17.250000000000 14.375000000000 2.446999549866 103 103 103
17.187500000000 14.375000000000 2.446000099182 101 101 101
17.125000000000 14.375000000000 2.442999839783 111 111 111
17.062500000000 14.312500000000 2.446999549866 98 98 98
17.062500000000 14.375000000000 2.444999694824 105 105 105
17.000000000000 14.375000000000 2.440999984741 110 110 110
