9.703125000000 6.859375000000 5.845001220703 43 43 43
7.859375000000 6.601562500000 1.643997192383 155 155 155
8.515625000000 6.578125000000 1.840988159180 53 53 53
7.984375000000 6.585937500000 1.942001342773 180 180 180
7.734375000000 6.609375000000 1.968994140625 166 166 166
8.140625000000 6.585937500000 2.106002807617 159 159 159
8.109375000000 6.578125000000 2.166000366211 126 126 126
8.359375000000 6.578125000000 2.268997192383 114 114 114
8.546875000000 6.570312500000 2.360992431641 161 161 161
8.890625000000 6.570312500000 2.474990844727 144 144 144
8.859375000000 6.578125000000 2.531997680664 187 187 187
7.796875000000 6.593750000000 2.458999633789 134 134 134
7.765625000000 6.593750000000 2.656997680664 132 132 132
8.078125000000 6.578125000000 2.759002685547 134 134 134
8.296875000000 6.585937500000 2.847000122070 153 153 153
8.328125000000 6.578125000000 2.916000366211 167 167 167
8.453125000000 6.570312500000 2.990997314453 148 148 148
8.640625000000 6.562500000000 3.067993164063 159 159 159
9.046875000000 6.562500000000 3.160995483398 164 164 164
9.046875000000 6.546875000000 3.222000122070 159 159 159
9.109375000000 6.546875000000 3.285995483398 142 142 142
8.609375000000 6.562500000000 3.315994262695 97 97 97
8.671875000000 6.554687500000 3.381988525391 157 157 157
8.859375000000 6.562500000000 3.453002929688 151 151 151
8.734375000000 6.554687500000 3.509002685547 196 196 196
7.390625000000 6.593750000000 3.524002075195 122 122 122
7.921875000000 6.570312500000 3.608001708984 130 130 130
8.171875000000 6.570312500000 3.680999755859 156 156 156
7.921875000000 6.578125000000 3.740997314453 137 137 137
7.640625000000 6.585937500000 3.804000854492 9 9 9
8.546875000000 6.562500000000 3.876998901367 102 102 102
9.515625000000 6.531250000000 3.940002441406 223 223 223
8.015625000000 6.570312500000 4.005996704102 58 58 58
8.984375000000 6.539062500000 4.059997558594 147 147 147
9.015625000000 6.531250000000 4.119995117188 199 199 199
9.171875000000 6.531250000000 4.175994873047 162 162 162
9.234375000000 6.523437500000 4.233993530273 177 177 177
9.296875000000 6.531250000000 4.289993286133 57 57 57
9.359375000000 6.531250000000 4.347000122070 25 25 25
9.296875000000 6.523437500000 4.405990600586 200 200 200
9.328125000000 6.523437500000 4.463989257813 206 206 206
9.421875000000 6.523437500000 4.515991210938 194 194 194
9.546875000000 6.523437500000 4.565994262695 164 164 164
9.453125000000 6.515625000000 4.630996704102 204 204 204
9.328125000000 6.523437500000 4.696990966797 112 112 112
9.390625000000 6.523437500000 4.750991821289 2 2 2
9.140625000000 6.523437500000 4.830001831055 151 151 151
9.234375000000 6.523437500000 4.882995605469 160 160 160
9.265625000000 6.523437500000 4.936996459961 213 213 213
8.296875000000 6.554687500000 5.097991943359 157 157 157
8.421875000000 6.546875000000 5.147994995117 72 72 72
7.984375000000 6.562500000000 5.399002075195 132 132 132
7.953125000000 6.554687500000 5.468994140625 102 102 102
7.828125000000 6.562500000000 5.555999755859 147 147 147
7.703125000000 6.562500000000 5.640991210938 95 95 95
7.796875000000 6.554687500000 5.694000244141 99 99 99
8.078125000000 6.539062500000 5.720001220703 149 149 149
7.984375000000 6.554687500000 5.802993774414 153 153 153
7.890625000000 6.546875000000 5.884994506836 66 66 66
8.328125000000 6.539062500000 5.879989624023 88 88 88
8.328125000000 6.539062500000 5.940994262695 75 75 75
8.046875000000 6.539062500000 6.201995849609 49 49 49
8.140625000000 6.554687500000 4.850997924805 131 131 131
8.796875000000 6.210937500000 1.858001708984 156 156 156
8.453125000000 6.234375000000 1.856994628906 161 161 161
8.234375000000 6.234375000000 1.878997802734 172 172 172
8.109375000000 6.242187500000 1.927001953125 178 178 178
8.203125000000 6.234375000000 2.006988525391 172 172 172
8.203125000000 6.234375000000 2.072998046875 167 167 167
8.140625000000 6.242187500000 2.134002685547 170 170 170
8.671875000000 6.218750000000 2.279998779297 150 150 150
8.734375000000 6.210937500000 2.353988647461 159 159 159
8.765625000000 6.203125000000 2.420989990234 160 160 160
8.984375000000 6.210937500000 2.515991210938 166 166 166
9.140625000000 6.195312500000 2.595993041992 186 186 186
8.078125000000 6.226562500000 2.522003173828 131 131 131
8.046875000000 6.234375000000 2.586990356445 181 181 181
8.078125000000 6.234375000000 2.654998779297 181 181 181
8.046875000000 6.234375000000 2.718994140625 182 182 182
8.078125000000 6.226562500000 2.785995483398 185 185 185
8.421875000000 6.218750000000 2.884002685547 166 166 166
8.609375000000 6.218750000000 2.968002319336 149 149 149
8.203125000000 6.226562500000 2.994995117188 162 162 162
8.046875000000 6.226562500000 3.045989990234 170 170 170
8.140625000000 6.226562500000 3.121002197266 177 177 177
8.359375000000 6.210937500000 3.200988769531 175 175 175
8.078125000000 6.218750000000 3.246994018555 178 178 178
8.078125000000 6.218750000000 3.311996459961 181 181 181
8.140625000000 6.226562500000 3.380996704102 174 174 174
8.203125000000 6.218750000000 3.448989868164 155 155 155
8.109375000000 6.226562500000 3.509994506836 165 165 165
8.109375000000 6.210937500000 3.574996948242 175 175 175
8.328125000000 6.210937500000 3.647003173828 161 161 161
8.296875000000 6.210937500000 3.709991455078 177 177 177
8.359375000000 6.210937500000 3.774993896484 161 161 161
8.421875000000 6.203125000000 3.838989257813 174 174 174
8.546875000000 6.203125000000 3.902999877930 172 172 172
8.734375000000 6.187500000000 3.964996337891 184 184 184
8.796875000000 6.195312500000 4.026000976563 187 187 187
8.890625000000 6.195312500000 4.085998535156 192 192 192
8.859375000000 6.195312500000 4.147003173828 184 184 184
8.609375000000 6.203125000000 4.213989257813 188 188 188
8.609375000000 6.203125000000 4.276992797852 163 163 163
8.640625000000 6.203125000000 4.336990356445 160 160 160
8.859375000000 6.187500000000 4.390991210938 161 161 161
8.828125000000 6.179687500000 4.453002929688 170 170 170
8.984375000000 6.179687500000 4.504989624023 164 164 164
8.484375000000 6.195312500000 4.597000122070 168 168 168
8.546875000000 6.195312500000 4.654998779297 163 163 163
8.640625000000 6.187500000000 4.711990356445 155 155 155
8.765625000000 6.179687500000 4.763992309570 176 176 176
8.734375000000 6.187500000000 4.826995849609 203 203 203
8.453125000000 6.195312500000 4.914993286133 161 161 161
8.234375000000 6.203125000000 5.000000000000 149 149 149
8.140625000000 6.195312500000 5.073989868164 156 156 156
8.328125000000 6.203125000000 5.117996215820 140 140 140
8.078125000000 6.195312500000 5.212997436523 101 101 101
8.109375000000 6.195312500000 5.276000976563 155 155 155
8.109375000000 6.195312500000 5.341995239258 153 153 153
8.109375000000 6.195312500000 5.407989501953 143 143 143
8.296875000000 6.195312500000 5.449996948242 156 156 156
8.328125000000 6.187500000000 5.509994506836 174 174 174
8.515625000000 6.171875000000 5.548995971680 154 154 154
8.453125000000 6.179687500000 5.619995117188 151 151 151
8.328125000000 6.187500000000 5.705993652344 148 148 148
8.359375000000 6.187500000000 5.767990112305 153 153 153
8.265625000000 6.187500000000 5.845993041992 118 118 118
8.078125000000 6.179687500000 5.947998046875 122 122 122
7.968750000000 5.882812500000 1.720001220703 251 251 251
8.437500000000 5.875000000000 1.940994262695 150 150 150
7.875000000000 5.890625000000 1.906997680664 152 152 152
7.625000000000 5.890625000000 1.935989379883 103 103 103
7.812500000000 5.882812500000 2.033996582031 112 112 112
8.250000000000 5.875000000000 2.170989990234 149 149 149
8.093750000000 5.890625000000 2.214996337891 145 145 145
8.281250000000 5.875000000000 2.309997558594 127 127 127
8.406250000000 5.875000000000 2.391998291016 144 144 144
8.437500000000 5.867187500000 2.459991455078 25 25 25
8.375000000000 5.867187500000 2.518997192383 110 110 110
8.625000000000 5.859375000000 2.611999511719 149 149 149
8.812500000000 5.835937500000 2.699996948242 154 154 154
8.875000000000 5.843750000000 2.768997192383 177 177 177
9.031250000000 5.843750000000 2.845001220703 187 187 187
7.375000000000 5.898437500000 2.739990234375 50 50 50
8.218750000000 5.875000000000 2.890991210938 150 150 150
8.468750000000 5.859375000000 2.976989746094 147 147 147
8.468750000000 5.859375000000 3.039993286133 127 127 127
7.781250000000 5.882812500000 3.052001953125 43 43 43
8.562500000000 5.859375000000 3.175003051758 147 147 147
8.125000000000 5.867187500000 3.209991455078 168 168 168
8.343750000000 5.851562500000 3.287994384766 155 155 155
8.437500000000 5.851562500000 3.356002807617 152 152 152
8.687500000000 5.843750000000 3.431991577148 161 161 161
8.593750000000 5.851562500000 3.489990234375 218 218 218
8.781250000000 5.835937500000 3.557998657227 174 174 174
8.812500000000 5.835937500000 3.621002197266 153 153 153
8.187500000000 5.859375000000 3.666992187500 98 98 98
8.375000000000 5.859375000000 3.735000610352 163 163 163
8.562500000000 5.843750000000 3.800994873047 131 131 131
8.812500000000 5.835937500000 3.865997314453 155 155 155
8.562500000000 5.851562500000 3.925994873047 181 181 181
7.937500000000 5.867187500000 3.991989135742 214 214 214
8.093750000000 5.851562500000 4.055999755859 138 138 138
8.218750000000 5.851562500000 4.119995117188 167 167 167
8.343750000000 5.843750000000 4.181991577148 159 159 159
8.250000000000 5.851562500000 4.248001098633 154 154 154
7.468750000000 5.859375000000 4.338989257813 110 110 110
8.281250000000 5.851562500000 4.375991821289 175 175 175
8.093750000000 5.851562500000 4.447998046875 135 135 135
8.375000000000 5.843750000000 4.500000000000 123 123 123
8.375000000000 5.843750000000 4.561996459961 116 116 116
8.531250000000 5.835937500000 4.616989135742 159 159 159
8.531250000000 5.843750000000 4.680999755859 162 162 162
8.656250000000 5.828125000000 4.733001708984 164 164 164
8.187500000000 5.851562500000 4.833999633789 132 132 132
8.250000000000 5.843750000000 4.893997192383 74 74 74
8.343750000000 5.835937500000 4.949996948242 171 171 171
8.437500000000 5.835937500000 5.003997802734 23 23 23
8.000000000000 5.851562500000 5.114990234375 24 24 24
8.250000000000 5.835937500000 5.154998779297 192 192 192
8.406250000000 5.835937500000 5.203002929688 79 79 79
8.468750000000 5.835937500000 5.257995605469 104 104 104
8.500000000000 5.835937500000 5.317001342773 132 132 132
8.593750000000 5.835937500000 5.367996215820 163 163 163
8.187500000000 5.843750000000 5.486999511719 163 163 163
8.125000000000 5.843750000000 5.562988281250 145 145 145
7.531250000000 5.859375000000 5.722991943359 89 89 89
7.875000000000 5.843750000000 5.871994018555 118 118 118
7.812500000000 5.843750000000 5.951995849609 82 82 82
7.812500000000 5.835937500000 6.022003173828 113 113 113
7.718750000000 5.546875000000 1.555999755859 226 226 226
7.906250000000 5.523437500000 1.871994018555 153 153 153
7.937500000000 5.523437500000 1.946990966797 135 135 135
7.937500000000 5.515625000000 2.013992309570 98 98 98
7.843750000000 5.531250000000 2.065994262695 71 71 71
8.093750000000 5.507812500000 2.170989990234 135 135 135
7.562500000000 5.539062500000 2.162994384766 75 75 75
8.218750000000 5.515625000000 2.326995849609 156 156 156
7.656250000000 5.539062500000 2.311996459961 115 115 115
7.906250000000 5.523437500000 2.414993286133 84 84 84
7.843750000000 5.515625000000 2.474990844727 100 100 100
7.781250000000 5.531250000000 2.532989501953 113 113 113
7.375000000000 5.531250000000 2.763992309570 85 85 85
7.437500000000 5.523437500000 2.841995239258 140 140 140
8.281250000000 5.507812500000 2.983993530273 172 172 172
8.468750000000 5.500000000000 3.063995361328 94 94 94
8.562500000000 5.492187500000 3.132995605469 147 147 147
8.656250000000 5.492187500000 3.203002929688 185 185 185
7.875000000000 5.523437500000 3.216995239258 158 158 158
8.343750000000 5.492187500000 3.437988281250 28 28 28
8.281250000000 5.507812500000 3.498992919922 107 107 107
8.156250000000 5.507812500000 3.558990478516 113 113 113
8.750000000000 5.484375000000 3.640991210938 187 187 187
7.937500000000 5.507812500000 3.683990478516 125 125 125
8.187500000000 5.507812500000 3.754989624023 79 79 79
8.156250000000 5.507812500000 3.819000244141 20 20 20
8.062500000000 5.492187500000 3.882995605469 15 15 15
8.000000000000 5.500000000000 3.948989868164 136 136 136
8.000000000000 5.500000000000 4.014999389648 45 45 45
8.281250000000 5.500000000000 4.268997192383 37 37 37
8.312500000000 5.492187500000 4.332000732422 28 28 28
8.250000000000 5.500000000000 4.399993896484 98 98 98
8.187500000000 5.500000000000 4.465988159180 87 87 87
8.406250000000 5.484375000000 4.774002075195 62 62 62
8.437500000000 5.484375000000 4.833999633789 5 5 5
8.062500000000 5.484375000000 4.930999755859 5 5 5
8.218750000000 5.484375000000 4.983993530273 130 130 130
8.250000000000 5.484375000000 5.046997070313 123 123 123
8.312500000000 5.523437500000 1.876998901367 138 138 138
10.171875000000 9.156250000000 4.067001342773 89 89 89
10.171875000000 9.171875000000 4.003997802734 127 127 127
10.140625000000 9.195312500000 3.940994262695 86 86 86
10.109375000000 9.210937500000 3.877990722656 43 43 43
10.109375000000 9.218750000000 3.815002441406 38 38 38
10.140625000000 8.835937500000 3.970993041992 114 114 114
10.109375000000 8.851562500000 3.907989501953 128 128 128
10.015625000000 8.890625000000 3.841995239258 148 148 148
9.921875000000 8.953125000000 3.774993896484 168 168 168
9.984375000000 8.929687500000 3.712997436523 140 140 140
9.953125000000 8.937500000000 3.647994995117 58 58 58
10.031250000000 8.515625000000 5.014999389648 10 10 10
9.968750000000 8.554687500000 4.957000732422 98 98 98
9.968750000000 8.570312500000 4.892990112305 151 151 151
9.890625000000 8.593750000000 4.832992553711 138 138 138
9.890625000000 8.609375000000 4.768997192383 148 148 148
9.968750000000 8.562500000000 4.700988769531 27 27 27
10.000000000000 8.531250000000 4.634994506836 107 107 107
10.093750000000 8.492187500000 4.569000244141 137 137 137
9.671875000000 8.757812500000 4.324996948242 32 32 32
9.765625000000 8.687500000000 4.257995605469 153 153 153
9.640625000000 8.765625000000 4.192993164063 161 161 161
9.734375000000 8.726562500000 4.127990722656 142 142 142
9.734375000000 8.726562500000 4.061996459961 56 56 56
9.671875000000 8.757812500000 3.996002197266 26 26 26
9.640625000000 8.765625000000 3.929992675781 24 24 24
9.859375000000 8.632812500000 3.805999755859 14 14 14
9.921875000000 8.601562500000 3.743988037109 169 169 169
9.765625000000 8.695312500000 3.672988891602 168 168 168
9.515625000000 8.867187500000 3.593002319336 115 115 115
9.734375000000 8.710937500000 3.539993286133 29 29 29
9.437500000000 8.539062500000 5.172988891602 51 51 51
9.468750000000 8.523437500000 5.101989746094 181 181 181
9.437500000000 8.546875000000 5.037002563477 130 130 130
9.437500000000 8.546875000000 4.903991699219 65 65 65
9.875000000000 8.265625000000 4.804992675781 126 126 126
9.906250000000 8.257812500000 4.737991333008 162 162 162
9.843750000000 8.289062500000 4.677001953125 119 119 119
9.593750000000 8.460937500000 4.625991821289 178 178 178
9.468750000000 8.523437500000 4.563995361328 167 167 167
9.406250000000 8.554687500000 4.498992919922 135 135 135
9.359375000000 8.578125000000 4.432998657227 84 84 84
9.687500000000 8.398437500000 4.095993041992 163 163 163
9.687500000000 8.390625000000 4.029998779297 158 158 158
9.562500000000 8.484375000000 3.961990356445 88 88 88
9.750000000000 8.367187500000 3.899993896484 88 88 88
9.718750000000 8.390625000000 3.833999633789 139 139 139
9.593750000000 8.453125000000 3.763992309570 120 120 120
10.000000000000 8.195312500000 3.716995239258 70 70 70
9.843750000000 7.914062500000 5.552001953125 81 81 81
9.875000000000 7.914062500000 5.485000610352 144 144 144
9.812500000000 7.945312500000 5.362991333008 61 61 61
10.031250000000 7.804687500000 5.141998291016 203 203 203
9.000000000000 8.453125000000 5.182998657227 146 146 146
9.875000000000 7.914062500000 5.030990600586 175 175 175
9.687500000000 8.007812500000 4.979995727539 162 162 162
9.593750000000 8.078125000000 4.922988891602 129 129 129
9.687500000000 8.023437500000 4.849990844727 181 181 181
9.875000000000 7.914062500000 4.772994995117 168 168 168
9.906250000000 7.898437500000 4.705993652344 145 145 145
9.937500000000 7.882812500000 4.640991210938 118 118 118
10.000000000000 7.835937500000 4.573989868164 147 147 147
9.937500000000 7.867187500000 4.511993408203 144 144 144
9.625000000000 8.070312500000 4.457992553711 44 44 44
9.656250000000 8.054687500000 4.391998291016 141 141 141
9.562500000000 8.109375000000 4.328002929688 133 133 133
9.500000000000 8.164062500000 4.263000488281 141 141 141
9.593750000000 8.085937500000 4.194992065430 81 81 81
9.625000000000 8.070312500000 4.128997802734 85 85 85
9.718750000000 8.015625000000 4.063995361328 65 65 65
9.781250000000 7.976562500000 4.000000000000 26 26 26
9.781250000000 7.984375000000 3.934997558594 36 36 36
9.781250000000 7.593750000000 5.526992797852 152 152 152
9.781250000000 7.593750000000 5.459991455078 106 106 106
9.718750000000 7.640625000000 5.405990600586 125 125 125
9.656250000000 7.679687500000 5.345993041992 148 148 148
9.687500000000 7.656250000000 5.276992797852 143 143 143
9.343750000000 7.859375000000 5.246994018555 157 157 157
9.343750000000 7.875000000000 5.180999755859 168 168 168
9.656250000000 7.687500000000 5.082992553711 172 172 172
9.593750000000 7.718750000000 5.022003173828 166 166 166
9.812500000000 7.578125000000 4.935989379883 164 164 164
9.750000000000 7.632812500000 4.876998901367 145 145 145
9.625000000000 7.703125000000 4.819000244141 141 141 141
9.656250000000 7.687500000000 4.750991821289 168 168 168
10.093750000000 7.421875000000 4.662002563477 197 197 197
9.750000000000 7.640625000000 4.615997314453 172 172 172
9.375000000000 7.867187500000 4.567001342773 74 74 74
9.593750000000 7.726562500000 4.490997314453 180 180 180
9.593750000000 7.726562500000 4.358001708984 136 136 136
9.750000000000 7.632812500000 4.289993286133 138 138 138
9.718750000000 7.656250000000 4.224990844727 113 113 113
9.562500000000 7.750000000000 4.093994140625 81 81 81
9.734375000000 7.257812500000 5.832992553711 158 158 158
9.734375000000 7.257812500000 5.763992309570 148 148 148
9.718750000000 7.265625000000 5.698989868164 153 153 153
9.562500000000 7.359375000000 5.590988159180 92 92 92
9.625000000000 7.312500000000 5.513992309570 140 140 140
9.656250000000 7.312500000000 5.444992065430 174 174 174
9.437500000000 7.445312500000 5.404998779297 167 167 167
9.250000000000 7.546875000000 5.358993530273 168 168 168
9.218750000000 7.570312500000 5.293991088867 171 171 171
9.468750000000 7.429687500000 5.198989868164 180 180 180
9.718750000000 7.281250000000 5.106994628906 176 176 176
9.765625000000 7.242187500000 5.035995483398 170 170 170
9.718750000000 7.273437500000 4.974990844727 160 160 160
9.656250000000 7.320312500000 4.914993286133 152 152 152
9.656250000000 7.320312500000 4.847991943359 128 128 128
9.828125000000 7.195312500000 4.770996093750 145 145 145
9.718750000000 7.273437500000 4.712997436523 206 206 206
9.828125000000 7.210937500000 4.642990112305 202 202 202
9.125000000000 7.664062500000 4.610992431641 132 132 132
9.406250000000 7.484375000000 4.530990600586 141 141 141
9.500000000000 7.421875000000 4.459991455078 119 119 119
9.406250000000 7.484375000000 4.395996093750 146 146 146
9.312500000000 7.539062500000 4.330001831055 127 127 127
9.312500000000 7.523437500000 4.261993408203 142 142 142
9.718750000000 7.289062500000 4.192001342773 182 182 182
9.687500000000 7.296875000000 4.125991821289 115 115 115
9.625000000000 7.343750000000 4.060989379883 66 66 66
9.593750000000 7.367187500000 3.993988037109 106 106 106
9.562500000000 7.382812500000 3.927993774414 5 5 5
9.625000000000 7.343750000000 3.862991333008 50 50 50
9.625000000000 7.351562500000 3.796997070313 26 26 26
9.640625000000 6.960937500000 5.878997802734 61 61 61
9.484375000000 7.046875000000 5.565002441406 16 16 16
9.453125000000 7.078125000000 5.502990722656 122 122 122
9.390625000000 7.109375000000 5.440994262695 173 173 173
9.328125000000 7.156250000000 5.384002685547 190 190 190
9.031250000000 7.328125000000 5.345993041992 147 147 147
9.203125000000 7.226562500000 5.259002685547 161 161 161
9.093750000000 7.296875000000 5.200988769531 137 137 137
9.203125000000 7.234375000000 5.121994018555 127 127 127
9.203125000000 7.226562500000 5.052001953125 116 116 116
8.937500000000 7.406250000000 5.004989624023 178 178 178
9.359375000000 7.132812500000 4.765991210938 109 109 109
9.328125000000 7.171875000000 4.700988769531 181 181 181
9.000000000000 7.359375000000 4.647994995117 168 168 168
8.687500000000 7.546875000000 4.590988159180 112 112 112
8.718750000000 7.546875000000 4.517990112305 126 126 126
8.812500000000 7.484375000000 4.442993164063 146 146 146
8.593750000000 7.609375000000 4.376998901367 114 114 114
9.515625000000 7.062500000000 4.289993286133 65 65 65
9.546875000000 7.046875000000 4.222991943359 130 130 130
9.359375000000 7.148437500000 4.156997680664 118 118 118
9.390625000000 7.132812500000 4.088989257813 139 139 139
9.453125000000 7.093750000000 4.022003173828 123 123 123
9.546875000000 7.046875000000 3.957000732422 104 104 104
9.328125000000 7.171875000000 3.884994506836 48 48 48
9.640625000000 6.984375000000 3.826995849609 15 15 15
9.515625000000 7.070312500000 3.488998413086 44 44 44
8.640625000000 7.218750000000 5.800003051758 78 78 78
8.609375000000 7.234375000000 5.731994628906 98 98 98
8.437500000000 7.328125000000 5.677993774414 150 150 150
8.312500000000 7.421875000000 5.621002197266 161 161 161
8.437500000000 7.335937500000 5.529998779297 144 144 144
8.734375000000 7.164062500000 5.420989990234 165 165 165
8.765625000000 7.140625000000 5.343994140625 152 152 152
8.734375000000 7.148437500000 5.274993896484 158 158 158
8.984375000000 7.015625000000 5.179000854492 154 154 154
8.890625000000 7.062500000000 5.114990234375 179 179 179
8.703125000000 7.195312500000 5.062988281250 140 140 140
8.640625000000 7.218750000000 4.992996215820 63 63 63
9.421875000000 6.726562500000 4.861999511719 140 140 140
9.359375000000 6.781250000000 4.800003051758 155 155 155
9.359375000000 6.781250000000 4.731994628906 134 134 134
9.484375000000 6.710937500000 4.656997680664 123 123 123
7.781250000000 7.773437500000 4.670989990234 81 81 81
8.218750000000 7.500000000000 4.573989868164 167 167 167
8.218750000000 7.500000000000 4.498992919922 113 113 113
8.218750000000 7.507812500000 4.423995971680 84 84 84
8.375000000000 7.398437500000 4.345001220703 85 85 85
9.265625000000 6.851562500000 4.259994506836 102 102 102
9.109375000000 6.953125000000 4.192001342773 173 173 173
9.234375000000 6.882812500000 4.123001098633 148 148 148
9.328125000000 6.820312500000 4.054992675781 144 144 144
9.515625000000 6.703125000000 3.989990234375 112 112 112
9.578125000000 6.664062500000 3.925003051758 66 66 66
9.421875000000 6.765625000000 3.651992797852 14 14 14
8.187500000000 7.539062500000 2.369995117188 15 15 15
8.312500000000 7.468750000000 2.311996459961 147 147 147
8.375000000000 7.437500000000 2.243988037109 133 133 133
8.203125000000 7.140625000000 5.675003051758 111 111 111
8.078125000000 7.203125000000 5.615997314453 194 194 194
8.203125000000 7.156250000000 5.526000976563 22 22 22
8.234375000000 7.125000000000 5.444000244141 126 126 126
8.203125000000 7.140625000000 5.369995117188 126 126 126
8.171875000000 7.164062500000 5.298995971680 20 20 20
8.296875000000 7.101562500000 5.211990356445 28 28 28
8.515625000000 6.960937500000 5.115997314453 27 27 27
8.265625000000 7.109375000000 5.061996459961 215 215 215
9.015625000000 6.648437500000 4.929000854492 191 191 191
9.171875000000 6.554687500000 4.847991943359 169 169 169
8.984375000000 6.671875000000 4.791000366211 160 160 160
8.984375000000 6.664062500000 4.720001220703 187 187 187
9.421875000000 6.390625000000 4.627990722656 171 171 171
9.296875000000 6.460937500000 4.565002441406 198 198 198
9.421875000000 6.390625000000 4.493988037109 54 54 54
9.328125000000 6.445312500000 4.427993774414 17 17 17
9.265625000000 6.500000000000 4.361999511719 211 211 211
9.265625000000 6.500000000000 4.293991088867 181 181 181
9.265625000000 6.500000000000 4.225997924805 108 108 108
9.234375000000 6.523437500000 4.157989501953 117 117 117
9.078125000000 6.609375000000 4.087997436523 140 140 140
8.390625000000 7.062500000000 4.011001586914 158 158 158
8.578125000000 6.937500000000 3.940002441406 146 146 146
8.546875000000 6.945312500000 3.865997314453 16 16 16
8.609375000000 6.921875000000 3.502990722656 31 31 31
8.609375000000 6.921875000000 3.429992675781 160 160 160
8.031250000000 7.281250000000 3.313995361328 85 85 85
9.015625000000 6.679687500000 3.315002441406 100 100 100
9.109375000000 6.617187500000 3.252990722656 168 168 168
9.171875000000 6.570312500000 3.190002441406 151 151 151
8.671875000000 6.882812500000 3.069992065430 159 159 159
9.015625000000 6.687500000000 2.535995483398 193 193 193
8.109375000000 7.234375000000 2.239990234375 145 145 145
8.234375000000 7.171875000000 2.181991577148 131 131 131
8.296875000000 7.132812500000 2.116989135742 147 147 147
8.328125000000 7.109375000000 2.047988891602 179 179 179
7.781250000000 7.414062500000 4.552993774414 85 85 85
7.781250000000 7.398437500000 4.473999023438 47 47 47
8.453125000000 6.617187500000 5.979995727539 55 55 55
8.296875000000 6.734375000000 5.177001953125 26 26 26
8.671875000000 6.492187500000 5.065994262695 215 215 215
8.109375000000 6.851562500000 5.039993286133 219 219 219
7.984375000000 6.929687500000 4.740997314453 197 197 197
8.984375000000 6.312500000000 4.546997070313 179 179 179
8.953125000000 6.320312500000 4.476989746094 119 119 119
7.859375000000 7.023437500000 4.436996459961 154 154 154
8.046875000000 6.890625000000 4.353988647461 199 199 199
8.109375000000 6.859375000000 4.276992797852 237 237 237
8.953125000000 6.335937500000 4.125991821289 115 115 115
8.734375000000 6.484375000000 4.054000854492 49 49 49
9.015625000000 6.304687500000 3.985992431641 16 16 16
8.578125000000 6.562500000000 3.906997680664 84 84 84
8.265625000000 6.773437500000 3.823989868164 234 234 234
8.359375000000 6.710937500000 3.752990722656 245 245 245
8.921875000000 6.375000000000 3.487991333008 244 244 244
8.578125000000 6.585937500000 3.393997192383 191 191 191
7.796875000000 7.070312500000 3.261001586914 234 234 234
7.984375000000 6.945312500000 3.197998046875 168 168 168
8.890625000000 6.390625000000 3.131988525391 233 233 233
8.953125000000 6.343750000000 3.067001342773 173 173 173
7.734375000000 7.117187500000 2.699996948242 190 190 190
7.734375000000 7.109375000000 2.621002197266 242 242 242
9.296875000000 6.125000000000 2.690994262695 33 33 33
9.203125000000 6.203125000000 2.603988647461 168 168 168
9.015625000000 6.328125000000 2.503997802734 240 240 240
8.734375000000 6.500000000000 2.384002685547 2 2 2
8.453125000000 6.671875000000 2.264999389648 217 217 217
7.953125000000 6.984375000000 2.097991943359 219 219 219
8.140625000000 6.882812500000 2.050994873047 194 194 194
7.578125000000 7.203125000000 3.963989257813 210 210 210
8.328125000000 6.335937500000 5.806991577148 168 168 168
8.328125000000 6.343750000000 5.733993530273 200 200 200
8.109375000000 6.476562500000 5.688995361328 192 192 192
8.546875000000 6.203125000000 5.554000854492 152 152 152
8.265625000000 6.398437500000 5.060989379883 167 167 167
8.515625000000 6.242187500000 4.966995239258 146 146 146
8.421875000000 6.304687500000 4.899993896484 140 140 140
8.484375000000 6.250000000000 4.599990844727 168 168 168
8.609375000000 6.171875000000 4.520996093750 160 160 160
8.828125000000 6.054687500000 4.442993164063 172 172 172
8.796875000000 6.070312500000 4.371994018555 134 134 134
8.703125000000 6.125000000000 4.302001953125 148 148 148
8.484375000000 6.273437500000 4.231994628906 197 197 197
8.421875000000 6.289062500000 4.158996582031 161 161 161
8.953125000000 5.976562500000 4.086990356445 186 186 186
8.859375000000 6.039062500000 4.015991210938 167 167 167
8.515625000000 6.250000000000 3.644989013672 143 143 143
7.640625000000 6.812500000000 3.524002075195 111 111 111
8.359375000000 6.351562500000 3.412994384766 69 69 69
8.328125000000 6.367187500000 3.263000488281 138 138 138
8.515625000000 6.265625000000 3.201995849609 161 161 161
8.140625000000 6.507812500000 3.014999389648 170 170 170
8.546875000000 6.242187500000 2.983993530273 158 158 158
9.093750000000 5.906250000000 2.832000732422 168 168 168
8.734375000000 6.140625000000 2.711990356445 243 243 243
8.890625000000 6.039062500000 2.662002563477 196 196 196
8.546875000000 6.242187500000 2.539993286133 210 210 210
8.390625000000 6.359375000000 2.361999511719 172 172 172
8.671875000000 6.164062500000 2.336990356445 166 166 166
8.671875000000 6.164062500000 2.263992309570 167 167 167
8.578125000000 6.234375000000 2.171997070313 249 249 249
7.890625000000 6.664062500000 1.962997436523 151 151 151
8.546875000000 6.257812500000 1.866989135742 154 154 154
8.515625000000 6.273437500000 1.780990600586 205 205 205
8.359375000000 6.312500000000 6.183990478516 30 30 30
8.359375000000 6.312500000000 6.108001708984 12 12 12
8.265625000000 6.382812500000 5.894989013672 145 145 145
8.296875000000 6.367187500000 5.434997558594 28 28 28
8.203125000000 6.421875000000 5.371002197266 62 62 62
7.484375000000 6.867187500000 5.368988037109 54 54 54
8.109375000000 6.484375000000 5.151992797852 45 45 45
8.234375000000 6.406250000000 4.835998535156 114 114 114
8.671875000000 6.148437500000 4.736999511719 133 133 133
8.546875000000 6.210937500000 4.669998168945 128 128 128
8.609375000000 6.187500000000 3.866989135742 171 171 171
8.421875000000 6.296875000000 3.789001464844 165 165 165
8.734375000000 6.117187500000 3.365997314453 110 110 110
7.796875000000 6.710937500000 3.060989379883 25 25 25
8.671875000000 6.156250000000 2.927001953125 165 165 165
8.046875000000 6.570312500000 1.912994384766 198 198 198
8.328125000000 6.398437500000 1.892990112305 183 183 183
8.296875000000 5.984375000000 5.843994140625 138 138 138
8.140625000000 6.070312500000 5.791992187500 84 84 84
8.562500000000 5.851562500000 4.703002929688 108 108 108
8.328125000000 5.984375000000 4.416000366211 123 123 123
8.500000000000 5.898437500000 3.823989868164 131 131 131
8.500000000000 5.914062500000 3.750000000000 146 146 146
8.296875000000 6.046875000000 2.763000488281 161 161 161
8.781250000000 5.742187500000 2.750991821289 170 170 170
8.750000000000 5.757812500000 2.675003051758 176 176 176
8.562500000000 5.882812500000 2.574996948242 181 181 181
8.171875000000 6.109375000000 2.442993164063 146 146 146
8.453125000000 5.953125000000 2.408996582031 158 158 158
8.296875000000 6.054687500000 2.307998657227 161 161 161
8.078125000000 6.171875000000 2.195999145508 166 166 166
8.078125000000 6.171875000000 2.116989135742 156 156 156
8.109375000000 6.156250000000 2.043991088867 163 163 163
8.421875000000 5.960937500000 2.026992797852 178 178 178
8.468750000000 5.929687500000 1.958999633789 188 188 188
8.078125000000 6.171875000000 1.802993774414 184 184 184
8.078125000000 6.179687500000 1.722991943359 196 196 196
8.109375000000 6.179687500000 1.644989013672 214 214 214
8.046875000000 6.132812500000 6.352996826172 25 25 25
8.015625000000 6.164062500000 6.203002929688 15 15 15
8.015625000000 6.156250000000 6.123001098633 62 62 62
8.234375000000 6.031250000000 6.009994506836 64 64 64
8.171875000000 6.062500000000 5.940002441406 69 69 69
8.140625000000 6.070312500000 5.715988159180 123 123 123
8.109375000000 6.109375000000 5.645996093750 48 48 48
8.234375000000 6.046875000000 5.552993774414 141 141 141
8.406250000000 5.945312500000 5.231994628906 32 32 32
8.109375000000 6.109375000000 4.953994750977 151 151 151
8.234375000000 6.054687500000 4.871002197266 88 88 88
7.953125000000 6.226562500000 4.270996093750 45 45 45
8.390625000000 5.960937500000 4.192001342773 81 81 81
8.265625000000 6.039062500000 4.117996215820 62 62 62
8.265625000000 6.039062500000 4.042999267578 123 123 123
7.984375000000 6.210937500000 3.963989257813 59 59 59
8.171875000000 6.093750000000 3.890991210938 54 54 54
8.906250000000 5.664062500000 3.694000244141 194 194 194
8.718750000000 5.773437500000 3.541992187500 145 145 145
8.656250000000 5.812500000000 3.464996337891 145 145 145
8.328125000000 6.007812500000 3.294998168945 124 124 124
8.328125000000 6.007812500000 2.921997070313 116 116 116
8.375000000000 5.625000000000 3.852996826172 135 135 135
8.125000000000 5.773437500000 3.694992065430 128 128 128
8.562500000000 5.507812500000 3.125991821289 159 159 159
7.906250000000 5.929687500000 2.356002807617 106 106 106
8.250000000000 5.718750000000 2.334991455078 147 147 147
7.859375000000 5.945312500000 2.034988403320 127 127 127
7.765625000000 6.023437500000 1.932998657227 33 33 33
8.093750000000 5.835937500000 1.912994384766 177 177 177
8.343750000000 5.671875000000 1.886993408203 156 156 156
8.406250000000 5.640625000000 1.822998046875 169 169 169
8.093750000000 5.835937500000 1.675994873047 214 214 214
7.906250000000 5.875000000000 5.942001342773 85 85 85
7.937500000000 5.859375000000 5.858993530273 55 55 55
8.281250000000 5.648437500000 5.652999877930 9 9 9
8.156250000000 5.726562500000 5.595001220703 44 44 44
8.125000000000 5.750000000000 5.522994995117 87 87 87
7.906250000000 5.898437500000 5.473999023438 44 44 44
7.765625000000 5.976562500000 4.699996948242 72 72 72
7.796875000000 5.953125000000 4.619995117188 36 36 36
7.906250000000 5.898437500000 4.460998535156 49 49 49
7.968750000000 5.867187500000 3.996994018555 22 22 22
8.250000000000 5.703125000000 3.774993896484 150 150 150
7.640625000000 6.078125000000 3.595993041992 73 73 73
8.312500000000 5.671875000000 3.475997924805 104 104 104
7.875000000000 5.937500000000 3.294998168945 69 69 69
8.468750000000 5.562500000000 3.042999267578 141 141 141
8.281250000000 5.695312500000 2.946990966797 99 99 99
7.796875000000 6.000000000000 2.655990600586 23 23 23
8.156250000000 5.773437500000 2.627990722656 146 146 146
7.734375000000 6.031250000000 2.412002563477 47 47 47
8.187500000000 5.765625000000 2.243988037109 139 139 139
8.250000000000 5.734375000000 2.177001953125 150 150 150
7.968750000000 5.539062500000 1.931991577148 160 160 160
7.781250000000 5.664062500000 1.570999145508 233 233 233
7.625000000000 5.726562500000 4.907989501953 15 15 15
7.140625000000 6.015625000000 4.194992065430 13 13 13
8.031250000000 5.468750000000 3.959991455078 139 139 139
7.906250000000 5.554687500000 3.880996704102 95 95 95
8.218750000000 5.367187500000 3.585998535156 152 152 152
7.687500000000 5.687500000000 3.481002807617 89 89 89
7.781250000000 5.648437500000 3.406997680664 138 138 138
7.265625000000 5.953125000000 3.293991088867 117 117 117
7.812500000000 5.617187500000 3.252990722656 61 61 61
7.531250000000 5.796875000000 3.149993896484 103 103 103
7.718750000000 5.695312500000 2.608993530273 22 22 22
7.718750000000 5.679687500000 2.529998779297 140 140 140
8.250000000000 5.351562500000 2.528991699219 134 134 134
7.812500000000 5.625000000000 2.305999755859 32 32 32
8.281250000000 5.335937500000 2.302993774414 80 80 80
8.062500000000 5.484375000000 2.104995727539 101 101 101
7.968750000000 5.531250000000 2.014999389648 69 69 69
8.000000000000 5.523437500000 1.860000610352 142 142 142
7.875000000000 5.609375000000 1.511001586914 213 213 213
7.593750000000 5.398437500000 3.675994873047 62 62 62
7.250000000000 5.609375000000 3.086990356445 25 25 25
7.937500000000 5.179687500000 3.069000244141 47 47 47
7.187500000000 5.656250000000 2.914993286133 24 24 24
7.437500000000 5.492187500000 2.858001708984 67 67 67
7.812500000000 5.265625000000 2.820999145508 127 127 127
7.812500000000 5.281250000000 2.739990234375 21 21 21
7.218750000000 5.640625000000 2.586990356445 35 35 35
7.906250000000 5.210937500000 2.517990112305 80 80 80
7.875000000000 5.234375000000 2.196990966797 66 66 66
7.875000000000 5.234375000000 1.718994140625 209 209 209
7.906250000000 5.226562500000 2.277999877930 136 136 136
8.515625000000 8.679687500000 4.793991088867 29 29 29
8.640625000000 8.750000000000 4.858993530273 156 156 156
9.578125000000 8.914062500000 3.532989501953 19 19 19
9.546875000000 8.906250000000 3.597000122070 150 150 150
9.609375000000 8.937500000000 3.666000366211 150 150 150
9.796875000000 9.031250000000 3.738998413086 159 159 159
9.828125000000 9.054687500000 3.804000854492 160 160 160
9.859375000000 9.070312500000 3.868988037109 134 134 134
10.015625000000 9.148437500000 3.936996459961 147 147 147
10.046875000000 9.164062500000 3.998992919922 165 165 165
9.921875000000 9.093750000000 4.058990478516 171 171 171
9.578125000000 8.898437500000 4.117996215820 149 149 149
9.484375000000 8.875000000000 4.182998657227 166 166 166
9.578125000000 8.914062500000 4.248001098633 88 88 88
9.546875000000 8.890625000000 4.312988281250 234 234 234
9.296875000000 8.734375000000 4.382995605469 16 16 16
9.171875000000 8.687500000000 4.451995849609 101 101 101
9.078125000000 8.617187500000 4.524002075195 138 138 138
9.140625000000 8.664062500000 4.588989257813 200 200 200
9.015625000000 8.593750000000 4.731994628906 74 74 74
8.968750000000 8.562500000000 4.804000854492 93 93 93
8.875000000000 8.507812500000 4.878997802734 120 120 120
8.406250000000 8.273437500000 5.052993774414 159 159 159
9.109375000000 8.648437500000 5.136001586914 158 158 158
9.328125000000 8.765625000000 5.182998657227 167 167 167
9.390625000000 8.796875000000 5.243988037109 164 164 164
9.328125000000 8.773437500000 5.315994262695 78 78 78
9.796875000000 8.671875000000 3.703002929688 104 104 104
9.765625000000 8.664062500000 3.765991210938 145 145 145
9.984375000000 8.757812500000 3.837997436523 172 172 172
10.015625000000 8.781250000000 3.901000976563 142 142 142
10.015625000000 8.796875000000 3.963989257813 160 160 160
9.562500000000 8.539062500000 4.015991210938 132 132 132
9.625000000000 8.570312500000 4.082992553711 162 162 162
9.703125000000 8.609375000000 4.147994995117 168 168 168
9.343750000000 8.421875000000 4.211990356445 55 55 55
9.250000000000 8.359375000000 4.278991699219 18 18 18
9.500000000000 8.500000000000 4.343002319336 139 139 139
8.093750000000 7.734375000000 4.435989379883 74 74 74
9.562500000000 8.531250000000 4.472000122070 183 183 183
9.562500000000 8.531250000000 4.537994384766 208 208 208
9.156250000000 8.304687500000 4.618988037109 139 139 139
9.375000000000 8.421875000000 4.677001953125 166 166 166
9.593750000000 8.554687500000 4.731002807617 169 169 169
9.703125000000 8.609375000000 4.789001464844 208 208 208
9.890625000000 8.710937500000 4.840988159180 180 180 180
9.953125000000 8.742187500000 4.899993896484 140 140 140
9.953125000000 8.742187500000 4.961990356445 159 159 159
9.343750000000 8.398437500000 5.078994750977 185 185 185
9.343750000000 8.406250000000 5.145996093750 177 177 177
9.062500000000 8.250000000000 5.241989135742 158 158 158
8.625000000000 8.000000000000 5.358001708984 20 20 20
8.593750000000 7.992187500000 5.432998657227 110 110 110
8.625000000000 8.015625000000 5.500000000000 178 178 178
8.625000000000 8.023437500000 5.570999145508 177 177 177
8.218750000000 7.468750000000 2.229995727539 162 162 162
8.156250000000 7.453125000000 2.296997070313 145 145 145
7.671875000000 7.164062500000 2.683990478516 158 158 158
7.484375000000 7.054687500000 2.739990234375 147 147 147
7.515625000000 7.078125000000 2.902999877930 39 39 39
7.484375000000 7.039062500000 2.977996826172 133 133 133
7.671875000000 7.171875000000 3.233001708984 122 122 122
7.843750000000 7.257812500000 3.324996948242 140 140 140
7.937500000000 7.312500000000 3.406997680664 7 7 7
9.875000000000 8.351562500000 3.668991088867 39 39 39
9.906250000000 8.375000000000 3.735000610352 15 15 15
9.781250000000 8.281250000000 3.917999267578 89 89 89
7.515625000000 7.070312500000 4.007995605469 105 105 105
9.625000000000 8.218750000000 4.108993530273 147 147 147
9.562500000000 8.195312500000 4.172988891602 155 155 155
9.500000000000 8.156250000000 4.237991333008 162 162 162
9.375000000000 8.078125000000 4.304992675781 184 184 184
9.375000000000 8.078125000000 4.371002197266 200 200 200
9.500000000000 8.156250000000 4.433990478516 191 191 191
9.156250000000 7.968750000000 4.509994506836 182 182 182
9.281250000000 8.023437500000 4.573989868164 168 168 168
9.656250000000 8.218750000000 4.625000000000 170 170 170
9.906250000000 8.359375000000 4.677993774414 211 211 211
9.968750000000 8.390625000000 4.736999511719 158 158 158
9.687500000000 8.234375000000 4.817001342773 136 136 136
9.406250000000 8.093750000000 4.899002075195 233 233 233
9.375000000000 8.062500000000 4.970001220703 222 222 222
9.187500000000 7.976562500000 5.050003051758 203 203 203
9.250000000000 7.992187500000 5.114990234375 166 166 166
9.250000000000 8.007812500000 5.179992675781 163 163 163
9.125000000000 7.937500000000 5.261001586914 162 162 162
8.718750000000 7.710937500000 5.371994018555 152 152 152
8.718750000000 7.710937500000 5.444000244141 176 176 176
8.843750000000 7.781250000000 5.502990722656 150 150 150
8.781250000000 7.742187500000 5.580001831055 172 172 172
8.046875000000 7.007812500000 1.921997070313 172 172 172
8.203125000000 7.109375000000 2.033996582031 156 156 156
8.265625000000 7.140625000000 2.119995117188 146 146 146
8.078125000000 7.023437500000 2.162002563477 4 4 4
7.703125000000 6.820312500000 2.407989501953 140 140 140
7.765625000000 6.859375000000 2.496994018555 122 122 122
7.703125000000 6.820312500000 2.565994262695 125 125 125
7.421875000000 6.687500000000 2.610992431641 96 96 96
7.609375000000 6.781250000000 2.713989257813 11 11 11
7.671875000000 6.820312500000 2.800994873047 136 136 136
7.421875000000 6.679687500000 2.849990844727 103 103 103
7.546875000000 6.750000000000 2.944000244141 46 46 46
7.921875000000 6.945312500000 3.058990478516 69 69 69
8.015625000000 6.992187500000 3.143997192383 126 126 126
8.046875000000 6.992187500000 3.222000122070 76 76 76
7.515625000000 6.710937500000 3.491989135742 131 131 131
7.453125000000 6.687500000000 3.567993164063 129 129 129
7.171875000000 6.523437500000 3.634002685547 27 27 27
7.828125000000 6.875000000000 3.740997314453 53 53 53
7.859375000000 6.906250000000 3.819000244141 125 125 125
7.671875000000 6.812500000000 3.890991210938 75 75 75
8.328125000000 7.164062500000 3.981994628906 119 119 119
8.562500000000 7.281250000000 4.057998657227 139 139 139
9.468750000000 7.796875000000 4.136993408203 169 169 169
9.500000000000 7.804687500000 4.201995849609 201 201 201
9.375000000000 7.718750000000 4.267990112305 191 191 191
9.500000000000 7.796875000000 4.332992553711 219 219 219
9.531250000000 7.820312500000 4.397994995117 218 218 218
7.203125000000 6.554687500000 4.522994995117 98 98 98
8.875000000000 7.445312500000 4.550003051758 17 17 17
9.843750000000 7.984375000000 4.582000732422 241 241 241
9.812500000000 7.960937500000 4.647003173828 235 235 235
9.843750000000 7.984375000000 4.707992553711 234 234 234
9.781250000000 7.929687500000 4.776000976563 165 165 165
9.687500000000 7.898437500000 4.845001220703 139 139 139
9.562500000000 7.820312500000 4.918991088867 204 204 204
9.468750000000 7.781250000000 4.990997314453 197 197 197
9.718750000000 7.914062500000 5.035995483398 180 180 180
9.406250000000 7.734375000000 5.128997802734 174 174 174
9.281250000000 7.671875000000 5.205993652344 176 176 176
9.343750000000 7.695312500000 5.269989013672 176 176 176
9.625000000000 7.859375000000 5.304992675781 165 165 165
9.656250000000 7.867187500000 5.366989135742 160 160 160
9.687500000000 7.882812500000 5.427001953125 163 163 163
9.750000000000 7.906250000000 5.485992431641 181 181 181
9.750000000000 7.921875000000 5.550994873047 163 163 163
8.531250000000 7.250000000000 5.791992187500 104 104 104
8.421875000000 6.859375000000 1.963989257813 24 24 24
8.015625000000 6.648437500000 1.957992553711 176 176 176
7.828125000000 6.539062500000 1.996994018555 92 92 92
8.078125000000 6.687500000000 2.123992919922 126 126 126
8.296875000000 6.796875000000 2.239990234375 124 124 124
8.015625000000 6.648437500000 2.266998291016 127 127 127
7.671875000000 6.476562500000 2.289993286133 95 95 95
7.859375000000 6.562500000000 2.397994995117 40 40 40
7.796875000000 6.531250000000 2.465988159180 111 111 111
7.109375000000 6.171875000000 2.446990966797 27 27 27
7.734375000000 6.492187500000 2.610000610352 157 157 157
7.640625000000 6.429687500000 2.675994873047 153 153 153
8.484375000000 6.890625000000 2.858993530273 4 4 4
8.421875000000 6.867187500000 2.927001953125 110 110 110
8.359375000000 6.835937500000 2.993988037109 141 141 141
8.609375000000 6.968750000000 3.093002319336 153 153 153
7.921875000000 6.593750000000 3.173995971680 105 105 105
7.171875000000 6.187500000000 3.187988281250 99 99 99
8.203125000000 6.750000000000 3.348999023438 170 170 170
8.421875000000 6.851562500000 3.436996459961 195 195 195
9.109375000000 7.234375000000 3.554000854492 7 7 7
9.281250000000 7.320312500000 3.631988525391 14 14 14
9.250000000000 7.304687500000 3.697998046875 21 21 21
8.046875000000 6.656250000000 3.711990356445 135 135 135
8.296875000000 6.781250000000 3.795989990234 140 140 140
8.359375000000 6.835937500000 3.873001098633 124 124 124
8.390625000000 6.828125000000 3.945999145508 158 158 158
9.187500000000 7.273437500000 4.032989501953 197 197 197
9.343750000000 7.359375000000 4.101989746094 1 1 1
9.375000000000 7.382812500000 4.168991088867 212 212 212
9.437500000000 7.429687500000 4.233993530273 2 2 2
9.250000000000 7.304687500000 4.302001953125 217 217 217
9.343750000000 7.359375000000 4.367996215820 190 190 190
9.437500000000 7.406250000000 4.431991577148 203 203 203
9.781250000000 7.593750000000 4.487991333008 184 184 184
9.875000000000 7.648437500000 4.547988891602 77 77 77
9.750000000000 7.562500000000 4.616989135742 144 144 144
7.828125000000 6.523437500000 4.774002075195 97 97 97
9.750000000000 7.570312500000 4.807998657227 209 209 209
9.687500000000 7.539062500000 4.875991821289 222 222 222
9.750000000000 7.585937500000 4.934997558594 194 194 194
9.562500000000 7.468750000000 5.015991210938 193 193 193
9.812500000000 7.617187500000 5.057998657227 160 160 160
9.968750000000 7.703125000000 5.106002807617 169 169 169
9.968750000000 7.703125000000 5.168991088867 177 177 177
9.968750000000 7.679687500000 5.235000610352 219 219 219
7.765625000000 6.484375000000 5.552993774414 127 127 127
9.406250000000 7.382812500000 5.427001953125 138 138 138
9.812500000000 7.601562500000 5.442993164063 158 158 158
9.781250000000 7.585937500000 5.509994506836 191 191 191
9.843750000000 7.601562500000 5.569000244141 193 193 193
9.625000000000 7.500000000000 5.662994384766 58 58 58
7.796875000000 6.507812500000 6.248001098633 53 53 53
7.796875000000 6.546875000000 1.600997924805 164 164 164
7.890625000000 6.570312500000 3.627990722656 123 123 123
8.359375000000 6.492187500000 1.843002319336 157 157 157
7.984375000000 6.289062500000 1.838989257813 172 172 172
7.953125000000 6.273437500000 1.914001464844 154 154 154
7.984375000000 6.281250000000 1.996994018555 132 132 132
8.171875000000 6.390625000000 2.108993530273 153 153 153
8.171875000000 6.382812500000 2.181991577148 158 158 158
8.390625000000 6.492187500000 2.294998168945 172 172 172
8.609375000000 6.609375000000 2.406997680664 165 165 165
8.765625000000 6.703125000000 2.507995605469 176 176 176
8.671875000000 6.632812500000 2.559997558594 200 200 200
7.953125000000 6.273437500000 2.532989501953 159 159 159
7.953125000000 6.257812500000 2.606002807617 178 178 178
7.953125000000 6.273437500000 2.684997558594 200 200 200
8.140625000000 6.367187500000 2.783996582031 166 166 166
8.109375000000 6.328125000000 2.852996826172 199 199 199
8.390625000000 6.507812500000 2.963989257813 175 175 175
8.515625000000 6.554687500000 3.046997070313 187 187 187
8.609375000000 6.609375000000 3.130996704102 207 207 207
8.828125000000 6.742187500000 3.224990844727 188 188 188
8.703125000000 6.648437500000 3.281997680664 210 210 210
