28.968750000000 23.476562500000 6.862991333008 182 182 182
29.031250000000 23.515625000000 6.942993164063 192 192 192
29.312500000000 23.664062500000 7.089996337891 171 171 171
29.437500000000 23.726562500000 7.199996948242 137 137 137
29.062500000000 23.523437500000 7.152999877930 125 125 125
29.156250000000 23.570312500000 7.315002441406 36 36 36
29.656250000000 23.539062500000 3.979995727539 72 72 72
29.625000000000 23.539062500000 4.046997070313 125 125 125
30.187500000000 23.828125000000 4.106002807617 85 85 85
29.187500000000 23.289062500000 4.181991577148 190 190 190
29.187500000000 23.289062500000 4.244995117188 162 162 162
29.312500000000 23.335937500000 4.308990478516 173 173 173
30.000000000000 23.742187500000 4.381988525391 179 179 179
30.000000000000 23.734375000000 4.450988769531 146 146 146
29.750000000000 23.593750000000 4.513000488281 109 109 109
30.218750000000 23.851562500000 4.595001220703 143 143 143
29.656250000000 23.546875000000 4.642990112305 155 155 155
29.625000000000 23.523437500000 4.707000732422 118 118 118
29.656250000000 23.539062500000 4.774993896484 81 81 81
29.812500000000 23.625000000000 4.851989746094 217 217 217
29.750000000000 23.593750000000 4.914001464844 243 243 243
29.718750000000 23.578125000000 4.979995727539 202 202 202
29.781250000000 23.609375000000 5.050994873047 188 188 188
29.062500000000 23.218750000000 5.058990478516 220 220 220
29.125000000000 23.242187500000 5.125000000000 225 225 225
29.125000000000 23.242187500000 5.187988281250 20 20 20
29.031250000000 23.195312500000 5.242996215820 206 206 206
29.125000000000 23.242187500000 5.315002441406 219 219 219
29.593750000000 23.492187500000 5.432998657227 176 176 176
28.921875000000 23.125000000000 5.414001464844 220 220 220
28.890625000000 23.109375000000 5.473999023438 192 192 192
28.859375000000 23.085937500000 5.529998779297 212 212 212
29.343750000000 23.359375000000 5.664001464844 180 180 180
29.250000000000 23.312500000000 5.716995239258 171 171 171
28.390625000000 22.820312500000 5.639999389648 228 228 228
28.453125000000 22.859375000000 5.708999633789 208 208 208
28.578125000000 22.953125000000 5.796997070313 210 210 210
29.843750000000 23.640625000000 6.082992553711 149 149 149
28.484375000000 22.875000000000 5.897003173828 183 183 183
28.515625000000 22.906250000000 5.964996337891 217 217 217
28.796875000000 23.054687500000 6.078994750977 146 146 146
28.984375000000 23.171875000000 6.181991577148 47 47 47
29.406250000000 23.382812500000 6.335998535156 110 110 110
29.031250000000 23.195312500000 6.324996948242 203 203 203
29.468750000000 23.429687500000 6.486999511719 146 146 146
29.156250000000 23.257812500000 6.483001708984 167 167 167
29.281250000000 23.328125000000 6.578002929688 135 135 135
29.281250000000 23.312500000000 6.641998291016 194 194 194
29.062500000000 23.195312500000 6.651992797852 174 174 174
29.000000000000 23.179687500000 6.705001831055 164 164 164
29.031250000000 23.195312500000 6.780990600586 177 177 177
29.218750000000 23.304687500000 6.899002075195 159 159 159
29.125000000000 23.242187500000 6.935989379883 165 165 165
29.250000000000 23.312500000000 7.039993286133 166 166 166
29.250000000000 23.312500000000 7.106002807617 162 162 162
29.250000000000 23.312500000000 7.173995971680 159 159 159
29.187500000000 23.273437500000 7.223999023438 164 164 164
29.312500000000 23.351562500000 7.333999633789 80 80 80
29.656250000000 23.234375000000 3.281997680664 125 125 125
29.515625000000 23.132812500000 3.560989379883 137 137 137
29.687500000000 23.250000000000 3.613998413086 8 8 8
29.515625000000 23.132812500000 4.083999633789 142 142 142
30.281250000000 23.585937500000 4.140991210938 80 80 80
29.359375000000 23.039062500000 4.214996337891 166 166 166
28.921875000000 22.820312500000 4.277999877930 139 139 139
30.093750000000 23.437500000000 4.419998168945 88 88 88
30.281250000000 23.570312500000 4.493988037109 75 75 75
30.468750000000 23.671875000000 4.569992065430 116 116 116
29.656250000000 23.234375000000 4.611999511719 139 139 139
29.812500000000 23.312500000000 4.684997558594 158 158 158
28.796875000000 22.718750000000 4.699996948242 227 227 227
29.328125000000 23.031250000000 4.791992187500 177 177 177
29.359375000000 23.039062500000 4.858001708984 210 210 210
29.171875000000 22.937500000000 4.909988403320 229 229 229
29.171875000000 22.937500000000 4.972991943359 194 194 194
29.265625000000 22.984375000000 5.042999267578 116 116 116
29.937500000000 23.367187500000 5.236999511719 201 201 201
28.984375000000 22.843750000000 5.207992553711 242 242 242
29.140625000000 22.921875000000 5.285995483398 6 6 6
29.421875000000 23.078125000000 5.382995605469 177 177 177
29.906250000000 23.343750000000 5.507995605469 130 130 130
28.515625000000 22.570312500000 5.394989013672 186 186 186
28.546875000000 22.593750000000 5.460998535156 187 187 187
28.703125000000 22.671875000000 5.541992187500 7 7 7
28.703125000000 22.679687500000 5.602996826172 228 228 228
28.640625000000 22.640625000000 5.651992797852 217 217 217
29.234375000000 22.976562500000 5.810989379883 199 199 199
28.796875000000 22.718750000000 5.800003051758 235 235 235
28.953125000000 22.828125000000 5.893997192383 19 19 19
28.953125000000 22.828125000000 5.955993652344 44 44 44
29.078125000000 22.898437500000 6.044998168945 246 246 246
29.015625000000 22.851562500000 6.091995239258 166 166 166
29.359375000000 23.039062500000 6.226989746094 164 164 164
29.078125000000 22.882812500000 6.233993530273 152 152 152
29.078125000000 22.890625000000 6.300994873047 137 137 137
29.140625000000 22.937500000000 6.379989624023 94 94 94
29.109375000000 22.914062500000 6.438995361328 164 164 164
29.171875000000 22.945312500000 6.520996093750 168 168 168
29.296875000000 23.007812500000 6.615997314453 165 165 165
29.421875000000 23.062500000000 6.707992553711 179 179 179
29.359375000000 23.054687500000 6.766998291016 163 163 163
29.687500000000 23.250000000000 6.929000854492 164 164 164
29.718750000000 23.242187500000 7.000991821289 170 170 170
29.687500000000 23.234375000000 7.060989379883 145 145 145
29.656250000000 23.210937500000 7.121994018555 160 160 160
29.609375000000 23.179687500000 7.175003051758 150 150 150
29.421875000000 23.070312500000 7.192001342773 220 220 220
32.078125000000 24.570312500000 5.280990600586 20 20 20
30.781250000000 23.843750000000 6.294998168945 154 154 154
29.984375000000 23.070312500000 3.149002075195 104 104 104
29.890625000000 23.023437500000 3.227996826172 143 143 143
30.046875000000 23.101562500000 3.281997680664 113 113 113
29.984375000000 23.078125000000 3.354995727539 166 166 166
29.359375000000 22.718750000000 3.473999023438 179 179 179
29.296875000000 22.703125000000 3.606002807617 213 213 213
30.187500000000 23.203125000000 4.106994628906 66 66 66
29.640625000000 22.875000000000 4.246994018555 111 111 111
29.796875000000 22.968750000000 4.313995361328 67 67 67
29.421875000000 22.750000000000 4.375991821289 166 166 166
29.546875000000 22.835937500000 4.442993164063 163 163 163
29.984375000000 23.078125000000 4.520996093750 204 204 204
29.953125000000 23.054687500000 4.587997436523 136 136 136
29.984375000000 23.070312500000 4.656997680664 160 160 160
30.625000000000 23.429687500000 4.755996704102 76 76 76
29.828125000000 23.000000000000 4.787002563477 187 187 187
29.515625000000 22.804687500000 4.834991455078 194 194 194
29.390625000000 22.742187500000 4.891998291016 171 171 171
29.640625000000 22.875000000000 4.973999023438 232 232 232
29.828125000000 23.000000000000 5.057998657227 183 183 183
30.109375000000 23.132812500000 5.147994995117 181 181 181
29.921875000000 23.046875000000 5.201995849609 206 206 206
30.078125000000 23.109375000000 5.284988403320 3 3 3
30.078125000000 23.117187500000 5.354995727539 139 139 139
29.078125000000 22.562500000000 5.309997558594 226 226 226
30.593750000000 23.421875000000 5.559997558594 142 142 142
29.484375000000 22.796875000000 5.488998413086 194 194 194
30.046875000000 23.093750000000 5.627990722656 179 179 179
29.921875000000 23.031250000000 5.681991577148 206 206 206
28.890625000000 22.453125000000 5.597991943359 206 206 206
28.859375000000 22.445312500000 5.656997680664 181 181 181
28.984375000000 22.515625000000 5.740997314453 23 23 23
28.859375000000 22.445312500000 5.779998779297 34 34 34
30.203125000000 23.187500000000 6.078002929688 176 176 176
29.359375000000 22.710937500000 5.993988037109 212 212 212
29.296875000000 22.695312500000 6.052001953125 185 185 185
29.390625000000 22.726562500000 6.134002685547 167 167 167
29.859375000000 22.992187500000 6.295989990234 47 47 47
29.578125000000 22.843750000000 6.304000854492 158 158 158
29.296875000000 22.679687500000 6.312988281250 155 155 155
30.046875000000 23.093750000000 6.543991088867 17 17 17
29.796875000000 22.953125000000 6.558990478516 136 136 136
29.515625000000 22.820312500000 6.567001342773 151 151 151
29.484375000000 22.789062500000 6.625991821289 183 183 183
29.421875000000 22.757812500000 6.679000854492 151 151 151
29.546875000000 22.828125000000 6.780990600586 111 111 111
29.859375000000 22.992187500000 6.929000854492 135 135 135
29.859375000000 23.000000000000 7.003997802734 135 135 135
29.765625000000 22.953125000000 7.050003051758 122 122 122
30.375000000000 23.296875000000 6.037994384766 178 178 178
29.796875000000 22.656250000000 2.853988647461 139 139 139
29.921875000000 22.726562500000 2.905990600586 43 43 43
29.765625000000 22.648437500000 2.990997314453 17 17 17
30.390625000000 22.992187500000 3.057998657227 98 98 98
30.421875000000 23.015625000000 3.126998901367 48 48 48
30.421875000000 23.007812500000 3.343994140625 102 102 102
30.515625000000 23.039062500000 3.409988403320 90 90 90
30.515625000000 23.062500000000 3.479995727539 116 116 116
30.328125000000 22.953125000000 3.563995361328 90 90 90
30.515625000000 23.054687500000 3.625000000000 53 53 53
30.515625000000 23.046875000000 3.985992431641 24 24 24
29.171875000000 22.312500000000 4.080001831055 175 175 175
30.453125000000 23.031250000000 4.129989624023 32 32 32
30.390625000000 22.976562500000 4.201995849609 112 112 112
29.734375000000 22.625000000000 4.270996093750 191 191 191
30.875000000000 23.257812500000 4.348999023438 128 128 128
30.421875000000 23.007812500000 4.416000366211 25 25 25
30.171875000000 22.859375000000 4.481002807617 138 138 138
29.609375000000 22.562500000000 4.600997924805 176 176 176
29.515625000000 22.507812500000 4.662002563477 164 164 164
29.765625000000 22.632812500000 4.739990234375 207 207 207
30.015625000000 22.773437500000 4.889999389648 150 150 150
29.421875000000 22.453125000000 4.918991088867 174 174 174
29.515625000000 22.492187500000 4.989990234375 171 171 171
29.640625000000 22.570312500000 5.067001342773 169 169 169
30.515625000000 23.062500000000 5.211990356445 176 176 176
30.546875000000 23.054687500000 5.285995483398 220 220 220
30.265625000000 22.914062500000 5.330001831055 223 223 223
32.093750000000 23.937500000000 5.603988647461 14 14 14
32.031250000000 23.898437500000 5.679992675781 27 27 27
31.718750000000 23.726562500000 5.722000122070 128 128 128
31.593750000000 23.656250000000 5.785995483398 123 123 123
31.593750000000 23.656250000000 5.867996215820 147 147 147
31.593750000000 23.671875000000 5.949996948242 168 168 168
30.906250000000 23.281250000000 5.927993774414 176 176 176
30.015625000000 22.765625000000 5.860000610352 210 210 210
30.078125000000 22.804687500000 5.942001342773 219 219 219
30.015625000000 22.773437500000 6.000991821289 219 219 219
30.484375000000 23.031250000000 6.152999877930 125 125 125
30.484375000000 23.031250000000 6.227996826172 132 132 132
29.796875000000 22.648437500000 6.171997070313 181 181 181
29.796875000000 22.648437500000 6.241989135742 155 155 155
30.421875000000 23.000000000000 6.440002441406 64 64 64
30.578125000000 23.070312500000 6.539993286133 83 83 83
30.046875000000 22.781250000000 6.642990112305 130 130 130
30.109375000000 22.820312500000 6.731994628906 131 131 131
29.171875000000 22.312500000000 6.711990356445 92 92 92
29.921875000000 22.429687500000 2.858001708984 136 136 136
29.890625000000 22.406250000000 2.930999755859 124 124 124
29.953125000000 22.421875000000 2.993988037109 144 144 144
30.046875000000 22.492187500000 3.050994873047 101 101 101
29.921875000000 22.414062500000 3.132995605469 146 146 146
30.203125000000 22.570312500000 3.175003051758 112 112 112
30.796875000000 22.898437500000 3.336990356445 147 147 147
30.609375000000 22.796875000000 3.425994873047 104 104 104
30.296875000000 22.632812500000 3.518997192383 130 130 130
30.296875000000 22.632812500000 3.589996337891 153 153 153
30.296875000000 22.617187500000 3.662002563477 153 153 153
30.328125000000 22.648437500000 3.731002807617 100 100 100
30.296875000000 22.609375000000 3.804000854492 37 37 37
29.859375000000 22.375000000000 4.226989746094 121 121 121
29.890625000000 22.390625000000 4.294998168945 134 134 134
30.140625000000 22.531250000000 4.435989379883 150 150 150
30.453125000000 22.710937500000 4.513992309570 32 32 32
30.515625000000 22.734375000000 4.586990356445 12 12 12
30.421875000000 22.703125000000 4.655990600586 98 98 98
30.265625000000 22.609375000000 4.720001220703 71 71 71
29.421875000000 22.140625000000 4.746994018555 189 189 189
29.359375000000 22.093750000000 4.807998657227 168 168 168
29.421875000000 22.132812500000 4.876998901367 162 162 162
29.515625000000 22.195312500000 4.948989868164 178 178 178
29.609375000000 22.250000000000 5.022003173828 173 173 173
29.703125000000 22.289062500000 5.097000122070 175 175 175
29.890625000000 22.398437500000 5.179992675781 242 242 242
32.125000000000 23.656250000000 5.470993041992 123 123 123
31.328125000000 23.195312500000 5.468994140625 163 163 163
31.296875000000 23.171875000000 5.542999267578 191 191 191
32.156250000000 23.664062500000 5.725997924805 81 81 81
31.718750000000 23.414062500000 5.752990722656 126 126 126
31.875000000000 23.500000000000 5.854995727539 147 147 147
30.640625000000 22.812500000000 5.763992309570 222 222 222
30.640625000000 22.796875000000 5.835998535156 163 163 163
30.640625000000 22.804687500000 5.910995483398 174 174 174
30.515625000000 22.734375000000 5.965988159180 167 167 167
30.390625000000 22.656250000000 6.018997192383 153 153 153
30.515625000000 22.726562500000 6.110992431641 143 143 143
30.546875000000 22.750000000000 6.194000244141 84 84 84
30.296875000000 22.617187500000 6.220993041992 127 127 127
32.625000000000 23.914062500000 5.259994506836 14 14 14
30.234375000000 22.281250000000 2.916000366211 20 20 20
30.265625000000 22.296875000000 2.983993530273 145 145 145
30.171875000000 22.242187500000 3.063995361328 46 46 46
30.296875000000 22.296875000000 3.123992919922 127 127 127
30.171875000000 22.234375000000 3.207000732422 137 137 137
30.203125000000 22.273437500000 3.272994995117 101 101 101
30.390625000000 22.367187500000 3.328994750977 147 147 147
30.390625000000 22.367187500000 3.399993896484 107 107 107
30.078125000000 22.195312500000 3.492996215820 157 157 157
30.390625000000 22.359375000000 3.543991088867 58 58 58
30.328125000000 22.312500000000 3.618988037109 102 102 102
30.609375000000 22.492187500000 3.673995971680 103 103 103
30.703125000000 22.523437500000 4.550994873047 15 15 15
30.765625000000 22.546875000000 4.625991821289 74 74 74
29.640625000000 21.953125000000 4.653991699219 32 32 32
29.734375000000 21.984375000000 4.723999023438 97 97 97
29.609375000000 21.929687500000 4.784988403320 173 173 173
29.609375000000 21.914062500000 4.849990844727 160 160 160
29.609375000000 21.929687500000 4.917999267578 171 171 171
29.890625000000 22.078125000000 5.003997802734 60 60 60
30.765625000000 22.570312500000 5.144989013672 61 61 61
29.796875000000 22.031250000000 5.132995605469 165 165 165
29.828125000000 22.046875000000 5.203994750977 68 68 68
29.703125000000 21.976562500000 5.326995849609 13 13 13
29.734375000000 22.000000000000 5.397994995117 4 4 4
29.578125000000 21.914062500000 5.447998046875 177 177 177
29.703125000000 21.968750000000 5.528991699219 64 64 64
30.984375000000 22.375000000000 3.164993286133 24 24 24
30.484375000000 22.085937500000 3.283996582031 122 122 122
30.515625000000 22.117187500000 3.352996826172 15 15 15
30.484375000000 22.101562500000 3.498992919922 126 126 126
30.515625000000 22.109375000000 3.569000244141 28 28 28
30.484375000000 22.085937500000 3.643997192383 133 133 133
29.843750000000 21.726562500000 4.694000244141 134 134 134
30.406250000000 21.882812500000 3.272003173828 64 64 64
30.609375000000 21.992187500000 3.324996948242 39 39 39
30.671875000000 22.023437500000 3.466995239258 136 136 136
30.703125000000 22.046875000000 3.537994384766 125 125 125
30.703125000000 22.046875000000 3.610992431641 67 67 67
30.453125000000 22.296875000000 2.951995849609 101 101 101
30.421875000000 22.289062500000 3.026000976563 119 119 119
30.421875000000 22.289062500000 3.097991943359 125 125 125
30.359375000000 22.273437500000 3.175003051758 91 91 91
30.421875000000 22.281250000000 3.242996215820 54 54 54
30.421875000000 22.289062500000 3.313995361328 141 141 141
30.421875000000 22.296875000000 3.384994506836 134 134 134
30.453125000000 22.296875000000 3.455993652344 134 134 134
30.359375000000 22.273437500000 3.531997680664 128 128 128
30.546875000000 22.351562500000 3.593994140625 101 101 101
30.671875000000 22.429687500000 3.658996582031 144 144 144
30.640625000000 22.398437500000 3.733993530273 79 79 79
30.734375000000 22.445312500000 3.802993774414 15 15 15
29.984375000000 22.046875000000 4.309997558594 18 18 18
30.359375000000 22.257812500000 4.526000976563 174 174 174
30.296875000000 22.226562500000 4.595001220703 170 170 170
29.828125000000 21.968750000000 4.647003173828 10 10 10
29.656250000000 21.859375000000 4.703994750977 122 122 122
29.687500000000 21.875000000000 4.772003173828 168 168 168
29.500000000000 21.773437500000 4.825988769531 177 177 177
29.468750000000 21.750000000000 4.889999389648 169 169 169
29.734375000000 21.921875000000 4.977996826172 58 58 58
29.953125000000 22.015625000000 5.059997558594 117 117 117
29.890625000000 21.984375000000 5.123001098633 146 146 146
29.859375000000 21.976562500000 5.188995361328 134 134 134
29.718750000000 21.875000000000 5.375000000000 145 145 145
29.656250000000 21.859375000000 5.503997802734 168 168 168
29.890625000000 22.382812500000 2.858001708984 118 118 118
30.078125000000 22.468750000000 2.972991943359 113 113 113
30.421875000000 22.679687500000 3.144989013672 17 17 17
30.765625000000 22.851562500000 3.185989379883 89 89 89
30.921875000000 22.945312500000 3.246002197266 73 73 73
30.640625000000 22.773437500000 3.345001220703 111 111 111
30.671875000000 22.804687500000 3.414993286133 119 119 119
30.546875000000 22.734375000000 3.496994018555 108 108 108
30.546875000000 22.734375000000 3.567993164063 92 92 92
30.484375000000 22.703125000000 3.643997192383 11 11 11
30.359375000000 22.640625000000 3.720993041992 110 110 110
29.390625000000 22.101562500000 4.088989257813 10 10 10
29.359375000000 22.085937500000 4.153991699219 111 111 111
29.859375000000 22.359375000000 4.218002319336 79 79 79
29.828125000000 22.343750000000 4.284988403320 111 111 111
29.984375000000 22.421875000000 4.353988647461 111 111 111
29.765625000000 22.312500000000 4.417999267578 83 83 83
29.671875000000 22.265625000000 4.483001708984 48 48 48
30.140625000000 22.507812500000 4.565002441406 81 81 81
30.453125000000 22.687500000000 4.647003173828 154 154 154
29.859375000000 22.351562500000 4.757995605469 166 166 166
29.390625000000 22.101562500000 4.797988891602 179 179 179
29.390625000000 22.117187500000 4.863998413086 170 170 170
29.265625000000 22.031250000000 4.918991088867 175 175 175
29.453125000000 22.140625000000 4.998001098633 170 170 170
29.703125000000 22.273437500000 5.082992553711 136 136 136
29.828125000000 22.335937500000 5.162002563477 230 230 230
32.250000000000 23.671875000000 5.470993041992 75 75 75
31.328125000000 23.156250000000 5.455993652344 180 180 180
30.609375000000 22.750000000000 5.817993164063 160 160 160
30.796875000000 22.867187500000 5.920989990234 170 170 170
32.593750000000 23.843750000000 5.330993652344 33 33 33
30.015625000000 22.812500000000 2.876998901367 116 116 116
30.390625000000 23.015625000000 2.972991943359 68 68 68
30.640625000000 23.140625000000 3.088989257813 13 13 13
30.203125000000 22.906250000000 3.205993652344 166 166 166
30.265625000000 22.960937500000 3.267990112305 120 120 120
30.390625000000 23.023437500000 3.328002929688 114 114 114
30.140625000000 22.882812500000 3.418991088867 131 131 131
30.203125000000 22.921875000000 3.483993530273 83 83 83
30.296875000000 22.960937500000 3.547988891602 119 119 119
30.671875000000 23.164062500000 3.597991943359 128 128 128
30.359375000000 23.000000000000 3.756988525391 11 11 11
30.421875000000 23.015625000000 4.180999755859 41 41 41
30.421875000000 23.023437500000 4.251998901367 5 5 5
29.703125000000 22.640625000000 4.317001342773 186 186 186
29.609375000000 22.593750000000 4.381988525391 138 138 138
29.515625000000 22.539062500000 4.445999145508 165 165 165
29.515625000000 22.523437500000 4.509994506836 195 195 195
29.734375000000 22.648437500000 4.582992553711 170 170 170
29.890625000000 22.742187500000 4.657989501953 179 179 179
30.515625000000 23.085937500000 4.755996704102 138 138 138
29.703125000000 22.640625000000 4.782989501953 165 165 165
29.640625000000 22.609375000000 4.845001220703 182 182 182
29.296875000000 22.414062500000 4.886993408203 182 182 182
29.359375000000 22.453125000000 4.955993652344 184 184 184
29.390625000000 22.468750000000 5.024002075195 227 227 227
30.234375000000 22.914062500000 5.159988403320 159 159 159
29.953125000000 22.765625000000 5.205993652344 246 246 246
30.484375000000 23.046875000000 5.328002929688 186 186 186
32.156250000000 23.968750000000 5.582000732422 17 17 17
29.828125000000 22.679687500000 5.394989013672 112 112 112
31.781250000000 23.765625000000 5.703994750977 99 99 99
31.750000000000 23.750000000000 5.782989501953 70 70 70
31.718750000000 23.726562500000 5.856002807617 93 93 93
31.500000000000 23.617187500000 5.906997680664 145 145 145
30.328125000000 22.968750000000 5.810989379883 220 220 220
29.203125000000 22.359375000000 5.711990356445 29 29 29
29.203125000000 22.343750000000 5.772003173828 23 23 23
30.734375000000 23.171875000000 6.093994140625 155 155 155
30.359375000000 22.976562500000 6.104995727539 137 137 137
29.578125000000 22.562500000000 6.035995483398 186 186 186
30.203125000000 22.898437500000 6.220001220703 143 143 143
29.921875000000 22.742187500000 6.236999511719 68 68 68
29.671875000000 22.601562500000 6.325988769531 123 123 123
30.203125000000 22.906250000000 6.509002685547 70 70 70
29.921875000000 22.734375000000 6.514999389648 157 157 157
29.765625000000 22.656250000000 6.552993774414 163 163 163
29.765625000000 22.656250000000 6.621994018555 126 126 126
29.765625000000 22.640625000000 6.685989379883 139 139 139
32.218750000000 23.992187500000 5.670989990234 38 38 38
29.734375000000 23.007812500000 2.868988037109 153 153 153
30.031250000000 23.187500000000 3.104995727539 123 123 123
29.734375000000 23.007812500000 3.205993652344 99 99 99
30.062500000000 23.195312500000 3.240997314453 105 105 105
30.015625000000 23.171875000000 3.313995361328 163 163 163
29.921875000000 23.125000000000 3.389999389648 128 128 128
29.828125000000 23.070312500000 3.802993774414 65 65 65
30.218750000000 23.289062500000 4.136001586914 11 11 11
29.953125000000 23.125000000000 4.205993652344 47 47 47
29.359375000000 22.796875000000 4.270996093750 192 192 192
29.046875000000 22.632812500000 4.332000732422 121 121 121
30.187500000000 23.265625000000 4.483993530273 29 29 29
29.765625000000 23.023437500000 4.539993286133 143 143 143
29.671875000000 22.976562500000 4.668991088867 151 151 151
29.734375000000 23.007812500000 4.738998413086 165 165 165
29.890625000000 23.101562500000 4.815002441406 178 178 178
29.546875000000 22.898437500000 4.860000610352 104 104 104
29.828125000000 23.046875000000 4.944992065430 17 17 17
29.890625000000 23.085937500000 5.083999633789 171 171 171
29.703125000000 22.976562500000 5.134994506836 196 196 196
29.578125000000 22.921875000000 5.190994262695 184 184 184
29.640625000000 22.945312500000 5.261993408203 252 252 252
29.078125000000 22.640625000000 5.266998291016 194 194 194
29.109375000000 22.648437500000 5.332000732422 186 186 186
28.984375000000 22.601562500000 5.382995605469 223 223 223
29.609375000000 22.921875000000 5.522994995117 187 187 187
29.140625000000 22.679687500000 5.527999877930 228 228 228
28.828125000000 22.500000000000 5.543991088867 210 210 210
29.078125000000 22.640625000000 5.644989013672 133 133 133
29.203125000000 22.718750000000 5.793991088867 243 243 243
29.171875000000 22.687500000000 5.848999023438 41 41 41
30.812500000000 23.585937500000 6.209991455078 119 119 119
28.703125000000 22.429687500000 5.891998291016 50 50 50
30.625000000000 23.484375000000 6.323989868164 60 60 60
29.578125000000 22.898437500000 6.185989379883 121 121 121
29.484375000000 22.851562500000 6.235000610352 102 102 102
29.140625000000 22.687500000000 6.233993530273 168 168 168
29.484375000000 22.851562500000 6.368988037109 144 144 144
29.296875000000 22.757812500000 6.397003173828 141 141 141
29.421875000000 22.828125000000 6.492996215820 130 130 130
29.890625000000 23.062500000000 6.666992187500 47 47 47
29.578125000000 22.914062500000 6.664993286133 162 162 162
29.546875000000 22.890625000000 6.725997924805 164 164 164
29.671875000000 22.953125000000 6.823989868164 158 158 158
29.640625000000 22.945312500000 6.884994506836 160 160 160
29.796875000000 23.015625000000 6.996994018555 132 132 132
30.625000000000 23.492187500000 3.550994873047 59 59 59
32.500000000000 24.507812500000 5.048995971680 24 24 24
31.031250000000 23.695312500000 6.169998168945 163 163 163
30.218750000000 23.648437500000 3.815994262695 30 30 30
30.000000000000 23.539062500000 3.891998291016 94 94 94
29.500000000000 23.242187500000 3.973999023438 173 173 173
29.562500000000 23.289062500000 4.037994384766 203 203 203
29.500000000000 23.257812500000 4.103988647461 206 206 206
29.375000000000 23.187500000000 4.169998168945 152 152 152
29.296875000000 23.132812500000 4.233993530273 173 173 173
29.328125000000 23.156250000000 4.297988891602 169 169 169
29.500000000000 23.257812500000 4.363998413086 127 127 127
29.625000000000 23.328125000000 4.431991577148 120 120 120
29.718750000000 23.375000000000 4.500000000000 80 80 80
30.062500000000 23.546875000000 4.578002929688 174 174 174
30.281250000000 23.671875000000 4.655990600586 70 70 70
29.656250000000 23.343750000000 4.696990966797 165 165 165
29.843750000000 23.437500000000 4.907989501953 228 228 228
29.843750000000 23.437500000000 4.974990844727 202 202 202
29.781250000000 23.406250000000 5.037994384766 207 207 207
29.375000000000 23.179687500000 5.069992065430 186 186 186
29.234375000000 23.093750000000 5.118988037109 11 11 11
29.265625000000 23.117187500000 5.184997558594 49 49 49
29.171875000000 23.070312500000 5.240997314453 210 210 210
29.359375000000 23.171875000000 5.324996948242 222 222 222
29.109375000000 23.015625000000 5.358001708984 221 221 221
29.015625000000 22.976562500000 5.472000122070 191 191 191
29.046875000000 22.992187500000 5.539993286133 193 193 193
29.015625000000 22.984375000000 5.599990844727 197 197 197
29.328125000000 23.148437500000 5.708999633789 180 180 180
28.921875000000 22.929687500000 5.708999633789 219 219 219
28.734375000000 22.820312500000 5.737991333008 233 233 233
28.484375000000 22.695312500000 5.759994506836 186 186 186
28.671875000000 22.789062500000 5.851989746094 191 191 191
29.375000000000 23.179687500000 6.046997070313 174 174 174
28.953125000000 22.937500000000 6.087997436523 137 137 137
29.140625000000 23.039062500000 6.192001342773 93 93 93
29.906250000000 23.445312500000 6.420989990234 61 61 61
29.781250000000 23.390625000000 6.462997436523 139 139 139
29.625000000000 23.320312500000 6.501998901367 145 145 145
29.078125000000 23.007812500000 6.434997558594 190 190 190
29.140625000000 23.039062500000 6.517990112305 187 187 187
29.203125000000 23.062500000000 6.593994140625 198 198 198
29.046875000000 23.000000000000 6.625991821289 171 171 171
29.140625000000 23.031250000000 6.711990356445 169 169 169
29.109375000000 23.007812500000 6.765991210938 168 168 168
29.265625000000 23.117187500000 6.884002685547 160 160 160
29.328125000000 23.140625000000 6.964996337891 162 162 162
29.328125000000 23.140625000000 7.030990600586 159 159 159
29.359375000000 23.140625000000 7.106994628906 144 144 144
29.359375000000 23.156250000000 7.177993774414 142 142 142
29.328125000000 23.140625000000 7.235992431641 151 151 151
29.468750000000 23.218750000000 7.356002807617 197 197 197
29.906250000000 23.859375000000 3.871994018555 9 9 9
29.468750000000 23.625000000000 4.082000732422 130 130 130
29.406250000000 23.601562500000 4.147003173828 138 138 138
30.218750000000 24.031250000000 4.210998535156 25 25 25
29.875000000000 23.835937500000 4.414001464844 182 182 182
29.281250000000 23.515625000000 4.465988159180 143 143 143
29.500000000000 23.632812500000 4.537002563477 183 183 183
29.437500000000 23.601562500000 4.599990844727 184 184 184
29.187500000000 23.468750000000 4.652999877930 202 202 202
29.218750000000 23.492187500000 4.718002319336 205 205 205
29.187500000000 23.476562500000 4.779998779297 162 162 162
29.812500000000 23.796875000000 4.880996704102 142 142 142
29.343750000000 23.531250000000 4.914993286133 229 229 229
29.531250000000 23.648437500000 4.996002197266 226 226 226
29.781250000000 23.781250000000 5.080993652344 17 17 17
29.656250000000 23.726562500000 5.138992309570 175 175 175
29.375000000000 23.578125000000 5.306991577148 110 110 110
28.781250000000 23.242187500000 5.302001953125 217 217 217
28.359375000000 23.000000000000 5.305999755859 194 194 194
28.421875000000 23.046875000000 5.373992919922 246 246 246
29.750000000000 23.757812500000 5.616989135742 153 153 153
29.687500000000 23.734375000000 5.677001953125 111 111 111
28.578125000000 23.140625000000 5.575988769531 36 36 36
28.781250000000 23.226562500000 5.664001464844 196 196 196
29.125000000000 23.421875000000 5.782989501953 191 191 191
29.593750000000 23.679687500000 5.929000854492 148 148 148
29.437500000000 23.585937500000 6.032989501953 70 70 70
29.437500000000 23.578125000000 6.164001464844 135 135 135
28.843750000000 23.273437500000 6.112991333008 156 156 156
29.000000000000 23.343750000000 6.203994750977 189 189 189
28.781250000000 23.242187500000 6.225997924805 203 203 203
28.843750000000 23.257812500000 6.296997070313 216 216 216
29.000000000000 23.359375000000 6.462997436523 187 187 187
28.875000000000 23.304687500000 6.500991821289 178 178 178
28.968750000000 23.343750000000 6.580993652344 190 190 190
28.781250000000 23.226562500000 6.597000122070 193 193 193
28.687500000000 23.171875000000 6.638992309570 200 200 200
29.593750000000 23.679687500000 6.947998046875 150 150 150
29.562500000000 23.664062500000 7.011993408203 178 178 178
29.343750000000 23.539062500000 7.020996093750 162 162 162
29.375000000000 23.554687500000 7.090988159180 144 144 144
29.531250000000 23.648437500000 7.211990356445 136 136 136
29.812500000000 23.781250000000 7.360000610352 84 84 84
29.843750000000 23.796875000000 7.444000244141 123 123 123
29.812500000000 23.789062500000 7.506988525391 159 159 159
29.906250000000 23.828125000000 7.608001708984 50 50 50
29.781250000000 23.781250000000 4.277999877930 127 127 127
29.437500000000 23.593750000000 4.340988159180 160 160 160
30.156250000000 24.000000000000 5.815002441406 130 130 130
30.671875000000 24.671875000000 3.973999023438 43 43 43
29.187500000000 23.843750000000 4.574996948242 18 18 18
28.593750000000 23.523437500000 4.729995727539 87 87 87
28.812500000000 23.648437500000 4.804000854492 114 114 114
28.812500000000 23.648437500000 4.863998413086 142 142 142
28.750000000000 23.601562500000 4.918991088867 141 141 141
29.062500000000 23.765625000000 5.004989624023 134 134 134
28.843750000000 23.648437500000 5.047988891602 152 152 152
28.843750000000 23.648437500000 5.108001708984 164 164 164
28.750000000000 23.601562500000 5.160995483398 136 136 136
28.781250000000 23.640625000000 5.227996826172 154 154 154
28.843750000000 23.648437500000 5.291992187500 179 179 179
29.000000000000 23.750000000000 5.375000000000 162 162 162
30.000000000000 24.281250000000 5.563995361328 149 149 149
28.812500000000 23.648437500000 5.472991943359 215 215 215
29.218750000000 23.867187500000 5.593002319336 140 140 140
28.875000000000 23.687500000000 5.606994628906 157 157 157
29.437500000000 23.968750000000 5.752990722656 64 64 64
28.750000000000 23.609375000000 5.708999633789 169 169 169
29.312500000000 23.914062500000 5.929000854492 110 110 110
28.718750000000 23.585937500000 5.886001586914 181 181 181
29.031250000000 23.765625000000 6.006988525391 65 65 65
29.093750000000 23.796875000000 6.082000732422 199 199 199
28.812500000000 23.648437500000 6.088989257813 189 189 189
29.000000000000 23.734375000000 6.190002441406 135 135 135
29.187500000000 23.851562500000 6.296997070313 177 177 177
29.125000000000 23.812500000000 6.347991943359 193 193 193
29.093750000000 23.796875000000 6.406997680664 161 161 161
29.375000000000 23.937500000000 6.537994384766 148 148 148
29.093750000000 23.789062500000 6.533996582031 187 187 187
29.406250000000 23.953125000000 6.677001953125 148 148 148
29.406250000000 23.960937500000 6.748992919922 161 161 161
29.500000000000 24.007812500000 6.837997436523 160 160 160
29.437500000000 23.984375000000 6.893997192383 168 168 168
29.687500000000 24.109375000000 7.029998779297 165 165 165
29.718750000000 24.117187500000 7.103988647461 119 119 119
29.656250000000 24.085937500000 7.155990600586 154 154 154
29.718750000000 24.140625000000 7.253997802734 144 144 144
29.718750000000 24.125000000000 7.319000244141 167 167 167
29.781250000000 24.171875000000 7.412002563477 153 153 153
29.781250000000 24.164062500000 7.481994628906 157 157 157
29.812500000000 24.179687500000 7.567001342773 88 88 88
28.968750000000 24.125000000000 3.741989135742 137 137 137
29.031250000000 24.140625000000 3.802001953125 108 108 108
29.031250000000 24.148437500000 3.862991333008 31 31 31
29.093750000000 24.171875000000 3.922988891602 38 38 38
29.156250000000 24.210937500000 3.983993530273 48 48 48
29.125000000000 24.203125000000 4.046997070313 127 127 127
28.593750000000 23.906250000000 4.586990356445 85 85 85
28.656250000000 23.937500000000 4.649002075195 164 164 164
28.625000000000 23.921875000000 4.707000732422 42 42 42
28.562500000000 23.890625000000 4.763000488281 117 117 117
28.781250000000 23.992187500000 4.895996093750 39 39 39
29.921875000000 24.632812500000 5.048995971680 69 69 69
29.343750000000 24.296875000000 5.065002441406 80 80 80
29.406250000000 24.328125000000 5.134002685547 82 82 82
29.250000000000 24.257812500000 5.185989379883 103 103 103
29.281250000000 24.273437500000 5.251998901367 188 188 188
29.125000000000 24.203125000000 5.300003051758 163 163 163
28.468750000000 23.835937500000 5.341995239258 200 200 200
28.437500000000 23.804687500000 5.394989013672 230 230 230
28.687500000000 23.945312500000 5.487991333008 189 189 189
28.500000000000 23.859375000000 5.524993896484 167 167 167
28.750000000000 23.984375000000 5.621994018555 144 144 144
28.687500000000 23.945312500000 5.669998168945 163 163 163
28.656250000000 23.937500000000 5.727996826172 184 184 184
28.562500000000 23.882812500000 5.770996093750 160 160 160
28.562500000000 23.882812500000 5.833999633789 169 169 169
28.593750000000 23.906250000000 5.899002075195 123 123 123
30.015625000000 24.656250000000 6.373001098633 80 80 80
29.187500000000 24.210937500000 6.332992553711 186 186 186
29.406250000000 24.328125000000 6.448989868164 121 121 121
29.218750000000 24.242187500000 6.472000122070 145 145 145
29.218750000000 24.218750000000 6.530990600586 103 103 103
29.093750000000 24.171875000000 6.571990966797 170 170 170
29.156250000000 24.195312500000 6.649002075195 67 67 67
29.343750000000 24.304687500000 6.764999389648 173 173 173
29.281250000000 24.273437500000 6.817001342773 137 137 137
29.218750000000 24.234375000000 6.867996215820 160 160 160
29.281250000000 24.265625000000 6.947998046875 156 156 156
29.343750000000 24.289062500000 7.030990600586 90 90 90
29.250000000000 24.250000000000 7.076995849609 150 150 150
29.250000000000 24.257812500000 7.147994995117 136 136 136
29.218750000000 24.226562500000 7.203994750977 23 23 23
28.468750000000 24.195312500000 4.720001220703 11 11 11
28.750000000000 24.367187500000 4.796997070313 164 164 164
29.000000000000 24.468750000000 5.490997314453 143 143 143
28.781250000000 24.351562500000 5.583999633789 147 147 147
29.140625000000 24.554687500000 5.765991210938 9 9 9
28.937500000000 24.453125000000 5.858993530273 109 109 109
29.203125000000 24.593750000000 6.032989501953 161 161 161
28.750000000000 24.351562500000 6.131988525391 29 29 29
28.750000000000 24.343750000000 6.192001342773 49 49 49
28.796875000000 22.640625000000 5.854995727539 21 21 21
28.703125000000 22.695312500000 5.774993896484 185 185 185
28.796875000000 22.640625000000 5.729995727539 228 228 228
28.859375000000 22.617187500000 5.675994873047 16 16 16
28.609375000000 22.750000000000 5.516998291016 215 215 215
28.859375000000 22.617187500000 5.487991333008 210 210 210
28.453125000000 22.859375000000 5.373992919922 239 239 239
28.359375000000 22.921875000000 5.302993774414 193 193 193
28.296875000000 22.953125000000 5.237991333008 224 224 224
29.703125000000 22.101562500000 5.126998901367 197 197 197
29.734375000000 22.078125000000 5.061996459961 203 203 203
29.453125000000 22.226562500000 4.974990844727 170 170 170
29.328125000000 22.320312500000 4.899993896484 182 182 182
29.359375000000 22.304687500000 4.836990356445 202 202 202
28.890625000000 22.609375000000 4.746002197266 2 2 2
29.546875000000 22.195312500000 4.649002075195 217 217 217
29.453125000000 22.250000000000 4.513000488281 24 24 24
28.515625000000 23.156250000000 6.509002685547 213 213 213
28.765625000000 23.000000000000 6.507995605469 83 83 83
28.984375000000 22.882812500000 6.493988037109 255 255 255
28.890625000000 22.937500000000 6.409988403320 181 181 181
28.765625000000 23.000000000000 6.317993164063 34 34 34
28.671875000000 23.070312500000 6.229995727539 169 169 169
28.734375000000 23.031250000000 6.182998657227 248 248 248
28.765625000000 23.023437500000 6.126998901367 247 247 247
28.890625000000 22.945312500000 6.087997436523 248 248 248
29.046875000000 22.843750000000 5.992996215820 50 50 50
29.046875000000 22.851562500000 5.929000854492 155 155 155
29.140625000000 22.789062500000 5.880996704102 117 117 117
29.140625000000 22.789062500000 5.815994262695 66 66 66
28.609375000000 23.125000000000 5.664001464844 117 117 117
29.390625000000 22.640625000000 5.722000122070 37 37 37
28.953125000000 22.914062500000 5.590988159180 16 16 16
28.921875000000 22.929687500000 5.524002075195 184 184 184
29.015625000000 22.890625000000 5.472000122070 138 138 138
29.453125000000 22.585937500000 5.466995239258 152 152 152
28.703125000000 23.062500000000 5.310989379883 169 169 169
28.796875000000 22.992187500000 5.259994506836 152 152 152
28.609375000000 23.125000000000 5.117996215820 12 12 12
29.734375000000 22.429687500000 5.160995483398 14 14 14
29.796875000000 22.398437500000 5.097000122070 129 129 129
29.171875000000 22.773437500000 4.981002807617 248 248 248
29.203125000000 22.781250000000 4.916992187500 246 246 246
29.515625000000 22.585937500000 4.873001098633 196 196 196
29.453125000000 22.609375000000 4.804000854492 175 175 175
29.828125000000 22.390625000000 4.755996704102 150 150 150
29.796875000000 22.406250000000 4.685989379883 146 146 146
29.640625000000 22.515625000000 4.611999511719 147 147 147
29.546875000000 22.554687500000 4.543991088867 108 108 108
29.484375000000 22.593750000000 4.475997924805 91 91 91
29.265625000000 22.726562500000 4.277999877930 156 156 156
29.578125000000 22.539062500000 4.210998535156 57 57 57
28.953125000000 22.929687500000 4.089996337891 9 9 9
29.078125000000 22.867187500000 4.024993896484 22 22 22
29.234375000000 23.085937500000 7.264999389648 19 19 19
29.234375000000 23.085937500000 7.194000244141 99 99 99
29.078125000000 23.164062500000 7.090988159180 151 151 151
29.062500000000 23.179687500000 7.011993408203 159 159 159
29.171875000000 23.132812500000 6.970001220703 159 159 159
29.171875000000 23.132812500000 6.904998779297 153 153 153
29.109375000000 23.148437500000 6.824996948242 156 156 156
29.171875000000 23.132812500000 6.767990112305 167 167 167
29.140625000000 23.148437500000 6.694000244141 168 168 168
29.000000000000 23.218750000000 6.600997924805 168 168 168
29.031250000000 23.203125000000 6.543991088867 200 200 200
28.875000000000 23.296875000000 6.440994262695 223 223 223
28.843750000000 23.304687500000 6.371002197266 38 38 38
28.906250000000 23.281250000000 6.319000244141 252 252 252
29.031250000000 23.210937500000 6.281997680664 14 14 14
29.000000000000 23.226562500000 6.205993652344 240 240 240
29.031250000000 23.210937500000 6.149993896484 240 240 240
29.031250000000 23.210937500000 6.086990356445 201 201 201
29.515625000000 22.929687500000 6.108993530273 186 186 186
28.750000000000 23.382812500000 5.902999877930 224 224 224
28.687500000000 23.421875000000 5.830001831055 124 124 124
28.656250000000 23.445312500000 5.763000488281 68 68 68
29.062500000000 23.195312500000 5.766998291016 103 103 103
29.062500000000 23.195312500000 5.701995849609 224 224 224
29.140625000000 23.140625000000 5.649002075195 204 204 204
28.937500000000 23.273437500000 5.557998657227 169 169 169
28.437500000000 23.585937500000 5.306991577148 226 226 226
28.343750000000 23.664062500000 5.235992431641 196 196 196
28.437500000000 23.593750000000 5.186996459961 191 191 191
28.687500000000 23.445312500000 5.152999877930 215 215 215
28.937500000000 23.289062500000 5.115997314453 230 230 230
28.781250000000 23.375000000000 5.039993286133 174 174 174
29.328125000000 23.046875000000 4.955993652344 183 183 183
28.718750000000 23.414062500000 4.851989746094 219 219 219
29.578125000000 22.914062500000 4.838989257813 147 147 147
28.656250000000 23.468750000000 4.725997924805 231 231 231
30.078125000000 22.585937500000 4.728988647461 95 95 95
29.828125000000 22.757812500000 4.649002075195 123 123 123
30.015625000000 22.640625000000 4.586990356445 73 73 73
29.984375000000 22.664062500000 4.515991210938 18 18 18
29.828125000000 22.750000000000 4.444992065430 82 82 82
29.296875000000 23.085937500000 4.305999755859 125 125 125
29.234375000000 23.125000000000 4.240997314453 115 115 115
29.359375000000 23.046875000000 4.175994873047 110 110 110
29.359375000000 23.054687500000 4.110992431641 93 93 93
29.296875000000 23.093750000000 4.046997070313 59 59 59
29.296875000000 23.093750000000 3.983001708984 71 71 71
29.296875000000 23.093750000000 3.917999267578 107 107 107
30.359375000000 22.437500000000 3.806991577148 11 11 11
29.359375000000 23.054687500000 3.784988403320 131 131 131
30.296875000000 22.492187500000 3.666000366211 36 36 36
30.359375000000 22.453125000000 3.590988159180 81 81 81
30.359375000000 22.453125000000 3.518997192383 121 121 121
30.546875000000 22.335937500000 3.431991577148 66 66 66
30.515625000000 22.335937500000 3.360000610352 83 83 83
30.453125000000 22.390625000000 3.292999267578 72 72 72
29.375000000000 23.351562500000 7.358001708984 43 43 43
29.406250000000 23.335937500000 7.294998168945 112 112 112
29.312500000000 23.390625000000 7.123992919922 153 153 153
29.250000000000 23.445312500000 7.034988403320 174 174 174
29.375000000000 23.351562500000 7.006988525391 157 157 157
29.250000000000 23.453125000000 6.897003173828 179 179 179
29.281250000000 23.429687500000 6.835998535156 167 167 167
29.281250000000 23.429687500000 6.766998291016 179 179 179
29.218750000000 23.460937500000 6.690002441406 168 168 168
29.125000000000 23.523437500000 6.593994140625 174 174 174
29.156250000000 23.515625000000 6.535995483398 179 179 179
29.000000000000 23.601562500000 6.438995361328 192 192 192
29.031250000000 23.570312500000 6.380996704102 223 223 223
28.875000000000 23.679687500000 6.277999877930 239 239 239
29.093750000000 23.562500000000 6.256988525391 242 242 242
29.281250000000 23.421875000000 6.236999511719 3 3 3
29.250000000000 23.453125000000 6.159988403320 224 224 224
28.750000000000 23.757812500000 5.996994018555 225 225 225
28.593750000000 23.867187500000 5.904998779297 194 194 194
28.562500000000 23.882812500000 5.839996337891 196 196 196
28.750000000000 23.757812500000 5.809997558594 227 227 227
28.562500000000 23.882812500000 5.718002319336 208 208 208
28.562500000000 23.882812500000 5.658996582031 209 209 209
28.468750000000 23.945312500000 5.580993652344 200 200 200
29.562500000000 23.265625000000 5.682998657227 152 152 152
28.656250000000 23.835937500000 5.485992431641 214 214 214
29.562500000000 23.273437500000 5.544998168945 210 210 210
29.593750000000 23.250000000000 5.481002807617 154 154 154
29.593750000000 23.265625000000 5.412994384766 101 101 101
28.906250000000 23.695312500000 5.268997192383 195 195 195
28.906250000000 23.695312500000 5.207992553711 149 149 149
28.937500000000 23.656250000000 5.149993896484 207 207 207
28.843750000000 23.726562500000 5.076995849609 214 214 214
28.781250000000 23.750000000000 5.011001586914 224 224 224
28.843750000000 23.726562500000 4.953002929688 229 229 229
28.875000000000 23.703125000000 4.894989013672 167 167 167
28.656250000000 23.835937500000 4.819000244141 188 188 188
28.593750000000 23.890625000000 4.753997802734 174 174 174
28.562500000000 23.898437500000 4.694000244141 186 186 186
28.531250000000 23.929687500000 4.631988525391 212 212 212
28.531250000000 23.914062500000 4.572998046875 5 5 5
28.531250000000 23.914062500000 4.513992309570 61 61 61
28.593750000000 23.890625000000 4.455001831055 215 215 215
29.625000000000 23.257812500000 4.409988403320 43 43 43
29.281250000000 23.460937500000 4.340988159180 129 129 129
29.343750000000 23.414062500000 4.276000976563 154 154 154
29.343750000000 23.421875000000 4.210998535156 122 122 122
28.843750000000 23.742187500000 4.152999877930 153 153 153
29.593750000000 23.289062500000 4.075988769531 148 148 148
29.187500000000 23.539062500000 4.020996093750 118 118 118
29.031250000000 23.617187500000 3.961990356445 76 76 76
29.343750000000 23.437500000000 3.821990966797 63 63 63
29.375000000000 23.406250000000 3.688995361328 136 136 136
29.312500000000 23.453125000000 3.627990722656 176 176 176
29.687500000000 23.234375000000 3.466995239258 171 171 171
29.625000000000 23.273437500000 3.405990600586 167 167 167
29.312500000000 23.445312500000 3.366989135742 159 159 159
29.718750000000 23.187500000000 4.613998413086 142 142 142
30.390625000000 22.781250000000 4.565002441406 36 36 36
29.250000000000 23.835937500000 7.278991699219 75 75 75
29.218750000000 23.843750000000 7.138000488281 227 227 227
29.250000000000 23.820312500000 7.078002929688 181 181 181
29.062500000000 23.945312500000 6.953002929688 166 166 166
29.125000000000 23.914062500000 6.902999877930 161 161 161
29.156250000000 23.898437500000 6.840988159180 183 183 183
29.312500000000 23.804687500000 6.817001342773 165 165 165
29.343750000000 23.773437500000 6.756988525391 164 164 164
28.875000000000 24.078125000000 6.569000244141 191 191 191
29.000000000000 24.007812500000 6.532989501953 169 169 169
28.937500000000 24.031250000000 6.457992553711 180 180 180
29.125000000000 23.921875000000 6.437988281250 162 162 162
29.062500000000 23.953125000000 6.356994628906 132 132 132
29.093750000000 23.953125000000 6.296997070313 124 124 124
29.156250000000 23.906250000000 6.246002197266 138 138 138
29.500000000000 23.695312500000 6.182998657227 175 175 175
29.000000000000 24.015625000000 6.016998291016 6 6 6
28.718750000000 24.164062500000 5.904998779297 237 237 237
28.812500000000 24.125000000000 5.856002807617 196 196 196
