37.437500000000 21.367187500000 2.154998779297 142 142 142
37.406250000000 21.359375000000 2.034988403320 45 45 45
37.406250000000 21.375000000000 1.914993286133 35 35 35
37.406250000000 21.375000000000 1.794998168945 31 31 31
37.406250000000 21.375000000000 1.673995971680 83 83 83
37.531250000000 21.367187500000 12.246002197266 104 104 104
37.531250000000 21.320312500000 7.343994140625 58 58 58
37.531250000000 21.328125000000 6.731002807617 12 12 12
37.531250000000 21.320312500000 5.881988525391 40 40 40
37.500000000000 21.335937500000 5.517990112305 17 17 17
34.984375000000 22.625000000000 15.276000976563 30 30 30
35.015625000000 22.585937500000 15.175003051758 183 183 183
35.078125000000 22.554687500000 15.070999145508 187 187 187
35.109375000000 22.515625000000 14.953002929688 181 181 181
35.046875000000 22.570312500000 14.754989624023 152 152 152
35.359375000000 22.375000000000 14.835998535156 179 179 179
36.937500000000 21.429687500000 15.753997802734 107 107 107
35.609375000000 22.218750000000 14.731994628906 34 34 34
37.656250000000 20.984375000000 15.923995971680 144 144 144
35.921875000000 22.023437500000 14.654998779297 75 75 75
35.265625000000 22.437500000000 12.506988525391 100 100 100
36.750000000000 21.531250000000 13.020996093750 20 20 20
37.500000000000 21.078125000000 13.272003173828 46 46 46
36.656250000000 21.578125000000 12.709991455078 103 103 103
37.281250000000 21.203125000000 12.879989624023 31 31 31
37.406250000000 21.125000000000 12.524993896484 76 76 76
37.437500000000 21.109375000000 11.448989868164 47 47 47
37.406250000000 21.085937500000 4.723999023438 29 29 29
37.687500000000 20.968750000000 16.093002319336 89 89 89
37.750000000000 20.929687500000 15.821990966797 96 96 96
36.781250000000 21.515625000000 15.041000366211 99 99 99
37.468750000000 21.101562500000 15.335998535156 30 30 30
36.781250000000 21.515625000000 14.599990844727 15 15 15
36.906250000000 21.437500000000 14.537002563477 29 29 29
35.765625000000 22.093750000000 11.141998291016 54 54 54
37.406250000000 21.085937500000 6.402999877930 19 19 19
37.406250000000 21.085937500000 6.280990600586 29 29 29
37.375000000000 21.101562500000 6.039001464844 28 28 28
35.453125000000 22.312500000000 12.478988647461 25 25 25
37.437500000000 21.062500000000 5.323989868164 17 17 17
35.625000000000 21.914062500000 15.960998535156 52 52 52
35.687500000000 21.890625000000 15.850997924805 110 110 110
34.953125000000 22.320312500000 15.179992675781 205 205 205
34.890625000000 22.351562500000 14.996002197266 159 159 159
34.921875000000 22.335937500000 14.878997802734 164 164 164
35.109375000000 22.226562500000 14.861999511719 210 210 210
35.296875000000 22.101562500000 14.868988037109 222 222 222
37.281250000000 20.906250000000 16.059997558594 70 70 70
36.468750000000 21.414062500000 15.345001220703 174 174 174
36.531250000000 21.359375000000 15.246994018555 1 1 1
35.750000000000 21.835937500000 14.588989257813 9 9 9
35.812500000000 21.789062500000 14.502990722656 51 51 51
35.906250000000 21.718750000000 12.651992797852 76 76 76
36.093750000000 21.617187500000 12.612991333008 111 111 111
37.281250000000 20.882812500000 12.666000366211 45 45 45
37.250000000000 20.906250000000 11.558990478516 21 21 21
36.562500000000 21.343750000000 15.116989135742 146 146 146
38.078125000000 20.445312500000 15.931991577148 23 23 23
35.562500000000 21.945312500000 12.593002319336 46 46 46
34.953125000000 22.289062500000 12.655990600586 109 109 109
35.375000000000 21.757812500000 15.843994140625 39 39 39
35.437500000000 21.710937500000 15.759002685547 125 125 125
35.531250000000 21.664062500000 15.670989990234 143 143 143
35.187500000000 21.867187500000 15.265991210938 170 170 170
34.796875000000 22.085937500000 14.875000000000 165 165 165
34.890625000000 22.031250000000 14.795989990234 169 169 169
34.828125000000 22.070312500000 14.610992431641 184 184 184
36.406250000000 21.125000000000 15.399002075195 201 201 201
35.500000000000 21.671875000000 12.625991821289 36 36 36
37.328125000000 20.546875000000 13.458999633789 26 26 26
36.718750000000 20.914062500000 12.868988037109 27 27 27
35.062500000000 21.945312500000 14.619995117188 33 33 33
38.203125000000 20.031250000000 16.280990600586 20 20 20
36.093750000000 21.304687500000 14.759002685547 144 144 144
37.000000000000 20.750000000000 15.192001342773 43 43 43
35.218750000000 21.804687500000 11.257995605469 18 18 18
36.937500000000 20.773437500000 9.588989257813 35 35 35
36.062500000000 21.335937500000 15.300003051758 23 23 23
37.765625000000 20.296875000000 15.828994750977 12 12 12
35.031250000000 21.625000000000 15.985000610352 14 14 14
35.062500000000 21.609375000000 15.861999511719 118 118 118
35.093750000000 21.593750000000 15.580993652344 162 162 162
35.093750000000 21.585937500000 15.453002929688 172 172 172
34.937500000000 21.687500000000 15.183990478516 169 169 169
34.687500000000 21.820312500000 14.598999023438 173 173 173
34.937500000000 21.695312500000 14.621002197266 239 239 239
35.187500000000 21.531250000000 14.516998291016 35 35 35
35.843750000000 21.125000000000 14.821990966797 2 2 2
35.281250000000 21.453125000000 13.108001708984 135 135 135
34.781250000000 21.757812500000 12.703002929688 103 103 103
35.125000000000 21.562500000000 12.759994506836 35 35 35
36.406250000000 20.773437500000 12.930999755859 11 11 11
35.218750000000 21.515625000000 15.826995849609 43 43 43
34.968750000000 21.671875000000 15.063995361328 94 94 94
35.031250000000 21.617187500000 14.561996459961 237 237 237
37.078125000000 20.398437500000 15.465988159180 69 69 69
35.250000000000 21.468750000000 12.705993652344 27 27 27
38.265625000000 19.671875000000 16.253997802734 26 26 26
35.468750000000 21.015625000000 14.381988525391 40 40 40
34.750000000000 21.445312500000 12.764999389648 138 138 138
37.671875000000 19.671875000000 14.121994018555 13 13 13
35.468750000000 21.015625000000 16.119995117188 40 40 40
35.500000000000 21.015625000000 15.979995727539 102 102 102
34.781250000000 21.445312500000 15.307998657227 139 139 139
34.812500000000 21.414062500000 15.192001342773 10 10 10
35.093750000000 21.257812500000 15.106002807617 26 26 26
34.593750000000 21.539062500000 14.621002197266 118 118 118
35.156250000000 21.203125000000 14.461990356445 83 83 83
36.734375000000 20.265625000000 15.492996215820 50 50 50
35.343750000000 20.765625000000 16.251998901367 75 75 75
35.375000000000 20.742187500000 16.128997802734 117 117 117
35.000000000000 20.960937500000 12.966995239258 24 24 24
36.578125000000 20.007812500000 11.569992065430 23 23 23
34.687500000000 21.140625000000 13.052001953125 23 23 23
34.593750000000 21.210937500000 12.854995727539 100 100 100
36.328125000000 19.843750000000 11.397994995117 22 22 22
34.500000000000 20.953125000000 14.832992553711 31 31 31
35.765625000000 20.203125000000 15.144989013672 38 38 38
34.312500000000 21.078125000000 12.865997314453 64 64 64
35.671875000000 19.976562500000 14.985000610352 12 12 12
34.265625000000 20.492187500000 13.462997436523 45 45 45
38.312500000000 24.335937500000 14.366989135742 27 27 27
38.218750000000 24.023437500000 12.110000610352 48 48 48
38.093750000000 24.023437500000 12.182998657227 99 99 99
37.218750000000 24.031250000000 12.149993896484 25 25 25
37.031250000000 24.039062500000 12.203002929688 51 51 51
36.937500000000 24.039062500000 12.267990112305 89 89 89
38.343750000000 24.015625000000 14.466995239258 94 94 94
38.000000000000 24.023437500000 14.417999267578 26 26 26
37.781250000000 24.007812500000 14.417999267578 38 38 38
36.687500000000 23.726562500000 12.093002319336 85 85 85
36.468750000000 23.718750000000 12.117996215820 123 123 123
36.437500000000 23.718750000000 12.208999633789 127 127 127
38.281250000000 23.695312500000 12.326995849609 39 39 39
36.281250000000 23.726562500000 12.255996704102 15 15 15
38.187500000000 23.687500000000 14.442001342773 42 42 42
37.125000000000 23.382812500000 12.516998291016 103 103 103
36.125000000000 23.390625000000 12.142990112305 179 179 179
36.812500000000 23.390625000000 12.602996826172 117 117 117
36.250000000000 23.398437500000 12.440002441406 28 28 28
36.031250000000 23.398437500000 12.449996948242 121 121 121
36.781250000000 23.406250000000 12.088989257813 10 10 10
36.406250000000 23.398437500000 12.030990600586 5 5 5
35.781250000000 23.406250000000 12.440994262695 112 112 112
37.375000000000 23.382812500000 12.494995117188 30 30 30
38.328125000000 23.031250000000 11.470993041992 75 75 75
36.484375000000 23.070312500000 10.958999633789 61 61 61
35.546875000000 23.085937500000 12.377990722656 133 133 133
35.328125000000 23.078125000000 12.366989135742 136 136 136
38.140625000000 23.039062500000 12.027999877930 19 19 19
37.265625000000 23.046875000000 12.020996093750 30 30 30
36.203125000000 23.070312500000 12.485000610352 66 66 66
35.765625000000 23.078125000000 12.375000000000 109 109 109
36.578125000000 22.742187500000 10.958999633789 29 29 29
36.703125000000 22.750000000000 11.116989135742 92 92 92
36.703125000000 22.750000000000 11.233993530273 48 48 48
36.078125000000 22.757812500000 12.123992919922 19 19 19
36.140625000000 22.742187500000 12.274002075195 171 171 171
36.390625000000 22.742187500000 12.526992797852 42 42 42
36.328125000000 22.742187500000 12.621002197266 125 125 125
35.546875000000 22.757812500000 12.330993652344 138 138 138
35.671875000000 22.750000000000 12.504989624023 81 81 81
35.515625000000 22.765625000000 12.546997070313 145 145 145
38.109375000000 22.710937500000 11.465988159180 14 14 14
38.234375000000 22.718750000000 11.894989013672 14 14 14
37.046875000000 22.718750000000 12.611999511719 18 18 18
35.390625000000 22.757812500000 12.595001220703 98 98 98
36.015625000000 22.734375000000 15.149993896484 45 45 45
35.859375000000 22.742187500000 15.198989868164 34 34 34
35.859375000000 22.742187500000 15.334991455078 12 12 12
36.140625000000 22.734375000000 15.108993530273 61 61 61
36.671875000000 22.421875000000 12.237991333008 23 23 23
36.484375000000 22.421875000000 12.281997680664 51 51 51
37.046875000000 22.406250000000 12.680999755859 38 38 38
36.765625000000 22.421875000000 12.664001464844 104 104 104
35.484375000000 22.437500000000 12.353988647461 81 81 81
35.953125000000 22.429687500000 12.731994628906 73 73 73
35.296875000000 22.437500000000 12.485000610352 150 150 150
35.046875000000 22.445312500000 12.593994140625 156 156 156
37.515625000000 22.453125000000 2.115997314453 35 35 35
37.640625000000 22.445312500000 2.522003173828 19 19 19
37.984375000000 22.398437500000 11.479995727539 19 19 19
36.796875000000 22.421875000000 12.186996459961 13 13 13
36.703125000000 22.421875000000 12.751998901367 73 73 73
35.296875000000 22.429687500000 14.742996215820 20 20 20
35.015625000000 22.437500000000 14.686996459961 15 15 15
34.984375000000 22.429687500000 14.912002563477 18 18 18
34.890625000000 22.437500000000 14.991989135742 41 41 41
36.890625000000 22.101562500000 12.284988403320 102 102 102
37.171875000000 22.093750000000 12.934997558594 106 106 106
38.265625000000 22.070312500000 13.767990112305 95 95 95
35.484375000000 22.117187500000 12.410995483398 114 114 114
37.953125000000 22.062500000000 13.865997314453 59 59 59
35.515625000000 22.117187500000 12.904998779297 182 182 182
34.953125000000 22.132812500000 12.724990844727 181 181 181
34.859375000000 22.132812500000 12.772003173828 168 168 168
37.765625000000 22.093750000000 9.903991699219 38 38 38
38.234375000000 22.062500000000 13.875000000000 37 37 37
35.734375000000 22.109375000000 12.791992187500 69 69 69
35.328125000000 22.109375000000 14.833999633789 16 16 16
37.921875000000 22.070312500000 13.994995117188 42 42 42
35.328125000000 22.109375000000 14.699996948242 66 66 66
35.312500000000 21.804687500000 11.131988525391 94 94 94
35.312500000000 21.804687500000 11.254989624023 23 23 23
36.437500000000 21.789062500000 12.015991210938 45 45 45
37.031250000000 21.773437500000 12.409988403320 38 38 38
37.125000000000 21.757812500000 12.970001220703 34 34 34
35.500000000000 21.789062500000 12.953002929688 131 131 131
35.031250000000 21.804687500000 12.819000244141 154 154 154
34.781250000000 21.804687500000 12.792999267578 147 147 147
35.375000000000 21.796875000000 11.060989379883 31 31 31
35.531250000000 21.796875000000 12.501998901367 92 92 92
35.781250000000 21.789062500000 12.879989624023 92 92 92
37.468750000000 21.492187500000 1.865997314453 32 32 32
37.500000000000 21.500000000000 1.966995239258 17 17 17
37.343750000000 21.437500000000 12.381988525391 109 109 109
37.031250000000 21.445312500000 12.614990234375 32 32 32
36.531250000000 21.453125000000 12.604995727539 133 133 133
36.187500000000 21.453125000000 12.550994873047 120 120 120
36.781250000000 21.453125000000 13.002990722656 78 78 78
37.531250000000 21.437500000000 13.647003173828 17 17 17
37.468750000000 21.492187500000 1.763000488281 48 48 48
37.156250000000 21.437500000000 11.215988159180 26 26 26
36.843750000000 21.453125000000 11.908996582031 8 8 8
36.812500000000 21.453125000000 12.634994506836 55 55 55
36.468750000000 21.453125000000 12.955001831055 97 97 97
35.468750000000 21.476562500000 12.651000976563 22 22 22
35.375000000000 21.468750000000 12.957000732422 24 24 24
35.281250000000 21.476562500000 13.030990600586 94 94 94
35.093750000000 21.484375000000 13.037994384766 16 16 16
36.343750000000 21.453125000000 14.567001342773 10 10 10
36.687500000000 21.429687500000 14.927001953125 27 27 27
35.281250000000 21.484375000000 12.666992187500 38 38 38
37.843750000000 21.414062500000 15.685989379883 9 9 9
37.937500000000 21.421875000000 15.897994995117 20 20 20
37.375000000000 21.171875000000 3.177993774414 137 137 137
37.375000000000 21.171875000000 3.280990600586 142 142 142
37.375000000000 21.164062500000 3.384002685547 140 140 140
37.375000000000 21.171875000000 3.486999511719 140 140 140
37.375000000000 21.164062500000 3.589996337891 140 140 140
37.375000000000 21.164062500000 3.692001342773 132 132 132
37.375000000000 21.164062500000 3.794998168945 140 140 140
37.375000000000 21.164062500000 3.897994995117 139 139 139
37.375000000000 21.164062500000 4.000991821289 135 135 135
37.375000000000 21.164062500000 4.102996826172 136 136 136
37.375000000000 21.164062500000 4.205993652344 136 136 136
37.375000000000 21.156250000000 4.308990478516 154 154 154
37.375000000000 21.164062500000 4.410995483398 148 148 148
37.375000000000 21.148437500000 4.513992309570 154 154 154
37.375000000000 21.164062500000 4.616989135742 159 159 159
34.812500000000 21.140625000000 14.965988159180 70 70 70
37.375000000000 21.179687500000 2.039001464844 49 49 49
37.375000000000 21.179687500000 2.143997192383 82 82 82
37.406250000000 21.164062500000 2.246002197266 104 104 104
37.375000000000 21.164062500000 2.350997924805 98 98 98
37.375000000000 21.179687500000 2.455001831055 103 103 103
37.375000000000 21.179687500000 2.557998657227 95 95 95
37.375000000000 21.164062500000 2.660995483398 118 118 118
37.375000000000 21.171875000000 2.765991210938 109 109 109
37.375000000000 21.171875000000 2.868988037109 107 107 107
37.375000000000 21.164062500000 2.972000122070 114 114 114
37.375000000000 21.171875000000 3.074996948242 123 123 123
37.343750000000 21.156250000000 4.718994140625 142 142 142
37.375000000000 21.164062500000 4.925003051758 148 148 148
37.375000000000 21.164062500000 5.027999877930 131 131 131
37.343750000000 21.148437500000 5.335998535156 22 22 22
37.343750000000 21.140625000000 5.957000732422 117 117 117
37.343750000000 21.148437500000 6.059997558594 106 106 106
37.343750000000 21.148437500000 6.162994384766 77 77 77
34.437500000000 21.156250000000 12.953994750977 6 6 6
37.343750000000 21.148437500000 4.821990966797 145 145 145
37.343750000000 21.148437500000 5.130996704102 128 128 128
37.375000000000 21.164062500000 5.233993530273 82 82 82
37.343750000000 21.148437500000 6.266998291016 68 68 68
37.187500000000 20.789062500000 11.472000122070 30 30 30
34.937500000000 20.828125000000 12.963989257813 109 109 109
34.906250000000 20.828125000000 13.082000732422 43 43 43
34.500000000000 20.820312500000 14.677993774414 8 8 8
34.187500000000 20.835937500000 14.583999633789 6 6 6
36.578125000000 20.484375000000 11.376998901367 6 6 6
36.734375000000 20.171875000000 11.507995605469 31 31 31
35.890625000000 20.148437500000 15.951995849609 31 31 31
36.375000000000 23.789062500000 12.239990234375 47 47 47
36.281250000000 23.742187500000 12.336990356445 14 14 14
35.843750000000 23.484375000000 12.492996215820 99 99 99
35.500000000000 23.320312500000 12.459991455078 107 107 107
36.500000000000 23.546875000000 12.240997314453 37 37 37
36.093750000000 23.320312500000 12.181991577148 28 28 28
35.703125000000 23.101562500000 12.630996704102 19 19 19
36.093750000000 23.320312500000 12.569992065430 23 23 23
35.359375000000 22.906250000000 12.578994750977 30 30 30
35.390625000000 22.601562500000 14.513000488281 99 99 99
35.546875000000 22.687500000000 14.487991333008 21 21 21
34.921875000000 22.343750000000 14.908996582031 107 107 107
36.718750000000 23.351562500000 12.548995971680 53 53 53
35.953125000000 22.914062500000 12.305999755859 24 24 24
35.671875000000 22.757812500000 14.421997070313 12 12 12
34.828125000000 21.976562500000 11.095001220703 11 11 11
35.296875000000 22.242187500000 14.681991577148 16 16 16
35.281250000000 21.929687500000 11.240997314453 27 27 27
35.453125000000 22.031250000000 12.565994262695 151 151 151
35.703125000000 22.164062500000 11.065002441406 5 5 5
35.484375000000 22.054687500000 11.215988159180 30 30 30
37.359375000000 23.078125000000 12.162994384766 65 65 65
35.125000000000 21.835937500000 13.147003173828 47 47 47
35.453125000000 22.023437500000 14.699996948242 39 39 39
35.484375000000 22.046875000000 14.868988037109 11 11 11
38.343750000000 23.625000000000 12.465988159180 15 15 15
35.328125000000 21.953125000000 13.011993408203 26 26 26
35.250000000000 21.906250000000 13.089996337891 90 90 90
36.265625000000 22.492187500000 15.403991699219 25 25 25
38.375000000000 23.351562500000 11.569992065430 30 30 30
38.281250000000 23.312500000000 11.673995971680 24 24 24
36.390625000000 22.234375000000 11.289001464844 22 22 22
35.875000000000 21.945312500000 11.194992065430 49 49 49
35.031250000000 21.468750000000 12.772003173828 178 178 178
35.156250000000 21.546875000000 11.360000610352 13 13 13
35.437500000000 21.695312500000 12.612991333008 36 36 36
35.656250000000 21.835937500000 12.867996215820 33 33 33
34.937500000000 21.414062500000 12.852996826172 157 157 157
35.500000000000 21.734375000000 13.294998168945 50 50 50
35.000000000000 21.460937500000 14.468002319336 10 10 10
34.812500000000 21.359375000000 15.177001953125 26 26 26
35.125000000000 21.523437500000 15.837997436523 32 32 32
35.000000000000 21.453125000000 15.897003173828 60 60 60
34.937500000000 21.429687500000 15.988998413086 23 23 23
35.250000000000 21.601562500000 11.287994384766 68 68 68
34.625000000000 21.234375000000 14.623001098633 53 53 53
37.578125000000 22.593750000000 2.315002441406 35 35 35
38.140625000000 22.914062500000 11.541992187500 24 24 24
37.921875000000 22.773437500000 11.583999633789 18 18 18
36.515625000000 21.992187500000 11.274993896484 68 68 68
36.437500000000 21.937500000000 11.362991333008 98 98 98
38.234375000000 22.953125000000 12.277999877930 106 106 106
37.984375000000 22.820312500000 12.453002929688 26 26 26
37.921875000000 22.773437500000 12.556991577148 18 18 18
35.781250000000 21.578125000000 12.735000610352 53 53 53
35.625000000000 21.492187500000 12.774993896484 38 38 38
35.843750000000 21.601562500000 13.020996093750 35 35 35
35.968750000000 21.679687500000 13.226989746094 31 31 31
35.625000000000 21.492187500000 13.172988891602 124 124 124
37.546875000000 22.570312500000 2.194992065430 66 66 66
38.203125000000 22.929687500000 12.116989135742 96 96 96
35.781250000000 21.585937500000 12.608001708984 98 98 98
37.671875000000 22.632812500000 14.164993286133 35 35 35
35.343750000000 21.343750000000 13.149993896484 26 26 26
34.968750000000 21.140625000000 13.069992065430 57 57 57
34.562500000000 20.882812500000 14.649002075195 26 26 26
34.093750000000 20.625000000000 14.860992431641 22 22 22
34.437500000000 20.820312500000 14.841995239258 83 83 83
37.890625000000 22.429687500000 11.647994995117 16 16 16
36.812500000000 21.828125000000 11.330001831055 86 86 86
38.296875000000 22.656250000000 12.093002319336 147 147 147
36.468750000000 21.632812500000 12.095001220703 33 33 33
34.968750000000 20.812500000000 14.740997314453 207 207 207
34.687500000000 20.648437500000 14.682998657227 188 188 188
35.031250000000 20.851562500000 15.356994628906 170 170 170
35.406250000000 21.070312500000 15.766998291016 123 123 123
35.281250000000 20.984375000000 15.815994262695 133 133 133
35.156250000000 20.898437500000 15.868988037109 80 80 80
36.937500000000 21.906250000000 12.448989868164 69 69 69
37.078125000000 21.992187500000 13.082000732422 83 83 83
36.218750000000 21.507812500000 13.029998779297 65 65 65
34.875000000000 20.773437500000 13.084991455078 20 20 20
34.578125000000 20.585937500000 14.741989135742 138 138 138
34.515625000000 20.546875000000 14.830001831055 143 143 143
37.062500000000 21.648437500000 12.455001831055 102 102 102
36.187500000000 21.179687500000 14.200988769531 100 100 100
36.593750000000 21.398437500000 14.591995239258 98 98 98
34.984375000000 20.492187500000 14.682998657227 179 179 179
34.859375000000 20.421875000000 14.725997924805 175 175 175
34.828125000000 20.406250000000 14.849990844727 253 253 253
35.687500000000 20.890625000000 15.598999023438 176 176 176
36.187500000000 21.179687500000 16.115997314453 18 18 18
35.437500000000 20.765625000000 15.878997802734 96 96 96
35.375000000000 20.710937500000 15.976989746094 86 86 86
35.312500000000 20.679687500000 16.083999633789 129 129 129
35.250000000000 20.648437500000 16.194992065430 127 127 127
37.000000000000 21.609375000000 11.361999511719 102 102 102
36.750000000000 21.484375000000 12.710998535156 16 16 16
36.656250000000 21.429687500000 13.072998046875 30 30 30
37.062500000000 21.664062500000 14.435989379883 169 169 169
36.843750000000 21.531250000000 14.886001586914 7 7 7
36.750000000000 21.492187500000 14.988998413086 72 72 72
37.000000000000 21.625000000000 13.114990234375 11 11 11
37.187500000000 21.406250000000 11.252990722656 85 85 85
37.000000000000 21.296875000000 12.225997924805 7 7 7
37.250000000000 21.421875000000 12.475997924805 119 119 119
37.093750000000 21.359375000000 12.685989379883 45 45 45
37.031250000000 21.304687500000 12.783996582031 16 16 16
37.218750000000 21.414062500000 13.014999389648 24 24 24
37.156250000000 21.382812500000 13.126998901367 22 22 22
37.750000000000 21.726562500000 14.765991210938 149 149 149
36.062500000000 20.773437500000 15.498001098633 154 154 154
36.062500000000 20.789062500000 15.672988891602 105 105 105
35.546875000000 20.476562500000 8.845001220703 7 7 7
37.281250000000 21.460937500000 14.351989746094 135 135 135
37.093750000000 21.351562500000 14.529998779297 85 85 85
37.156250000000 21.382812500000 14.712997436523 28 28 28
36.687500000000 21.125000000000 14.584991455078 31 31 31
37.500000000000 21.578125000000 15.231002807617 17 17 17
37.406250000000 21.195312500000 1.748992919922 157 157 157
37.375000000000 21.179687500000 1.871994018555 152 152 152
37.375000000000 21.179687500000 1.989990234375 150 150 150
37.375000000000 21.187500000000 2.110000610352 162 162 162
37.375000000000 21.179687500000 2.349990844727 148 148 148
37.375000000000 21.187500000000 2.468994140625 153 153 153
37.375000000000 21.171875000000 2.588989257813 160 160 160
37.375000000000 21.179687500000 2.707000732422 160 160 160
37.375000000000 21.171875000000 2.826995849609 158 158 158
37.375000000000 21.171875000000 2.944992065430 163 163 163
37.343750000000 21.164062500000 3.063995361328 139 139 139
37.343750000000 21.156250000000 3.418991088867 153 153 153
37.343750000000 21.148437500000 4.835998535156 175 175 175
37.343750000000 21.148437500000 4.953994750977 168 168 168
37.312500000000 21.164062500000 5.071990966797 182 182 182
37.343750000000 21.148437500000 5.190994262695 184 184 184
37.312500000000 21.156250000000 5.308990478516 158 158 158
37.343750000000 21.164062500000 5.429000854492 177 177 177
37.312500000000 21.148437500000 6.375991821289 172 172 172
37.312500000000 21.164062500000 6.496994018555 191 191 191
37.312500000000 21.164062500000 6.616989135742 186 186 186
37.343750000000 21.164062500000 7.338989257813 178 178 178
37.312500000000 21.164062500000 7.458999633789 176 176 176
37.343750000000 21.156250000000 7.582992553711 175 175 175
37.343750000000 21.164062500000 8.565002441406 171 171 171
37.343750000000 21.164062500000 8.687988281250 166 166 166
37.375000000000 21.187500000000 9.823989868164 155 155 155
37.406250000000 21.203125000000 9.960998535156 164 164 164
37.406250000000 21.203125000000 10.088989257813 161 161 161
37.406250000000 21.203125000000 10.214996337891 150 150 150
37.406250000000 21.210937500000 10.348999023438 165 165 165
37.406250000000 21.203125000000 10.476989746094 174 174 174
37.406250000000 21.218750000000 10.610992431641 179 179 179
37.406250000000 21.203125000000 10.736999511719 156 156 156
37.343750000000 21.171875000000 10.845993041992 151 151 151
37.406250000000 21.218750000000 11.003997802734 164 164 164
37.406250000000 21.218750000000 11.136001586914 166 166 166
37.437500000000 21.210937500000 11.272003173828 177 177 177
37.406250000000 21.218750000000 11.401992797852 156 156 156
37.437500000000 21.218750000000 11.541000366211 178 178 178
37.406250000000 21.218750000000 12.626998901367 163 163 163
37.437500000000 21.226562500000 12.774993896484 167 167 167
37.406250000000 21.203125000000 12.899993896484 142 142 142
37.500000000000 21.273437500000 14.257995605469 227 227 227
37.500000000000 21.273437500000 14.406997680664 198 198 198
37.375000000000 21.187500000000 2.228988647461 109 109 109
37.343750000000 21.164062500000 3.181991577148 79 79 79
37.343750000000 21.164062500000 3.300003051758 129 129 129
37.312500000000 21.164062500000 4.716995239258 14 14 14
37.343750000000 21.148437500000 5.545989990234 158 158 158
37.343750000000 21.156250000000 5.664993286133 55 55 55
37.312500000000 21.164062500000 5.781997680664 119 119 119
37.312500000000 21.156250000000 5.901000976563 82 82 82
37.312500000000 21.156250000000 6.735992431641 105 105 105
37.375000000000 21.171875000000 7.101989746094 33 33 33
37.343750000000 21.164062500000 7.220993041992 173 173 173
37.343750000000 21.164062500000 7.705001831055 159 159 159
37.343750000000 21.164062500000 7.824996948242 90 90 90
37.343750000000 21.164062500000 7.946990966797 147 147 147
37.343750000000 21.164062500000 8.317993164063 92 92 92
37.343750000000 21.171875000000 8.438995361328 115 115 115
37.343750000000 21.171875000000 8.809997558594 52 52 52
37.375000000000 21.179687500000 8.940994262695 35 35 35
37.406250000000 21.203125000000 9.197998046875 9 9 9
37.406250000000 21.210937500000 11.667999267578 77 77 77
37.437500000000 21.218750000000 11.809997558594 88 88 88
37.437500000000 21.218750000000 12.354995727539 123 123 123
37.406250000000 21.210937500000 12.485000610352 107 107 107
37.406250000000 21.218750000000 13.045989990234 97 97 97
37.406250000000 21.203125000000 13.179000854492 5 5 5
37.437500000000 21.226562500000 14.656997680664 13 13 13
37.468750000000 21.265625000000 16.239990234375 27 27 27
37.343750000000 21.148437500000 3.537002563477 93 93 93
37.343750000000 21.156250000000 4.009002685547 51 51 51
37.343750000000 21.148437500000 4.127990722656 17 17 17
37.312500000000 21.164062500000 4.598999023438 14 14 14
36.890625000000 20.609375000000 15.591995239258 192 192 192
37.312500000000 20.851562500000 14.805999755859 37 37 37
37.375000000000 20.898437500000 15.300003051758 21 21 21
37.906250000000 21.179687500000 15.945999145508 31 31 31
36.765625000000 20.539062500000 15.658996582031 63 63 63
37.500000000000 20.976562500000 15.860000610352 92 92 92
37.328125000000 20.539062500000 13.412002563477 16 16 16
37.203125000000 20.468750000000 13.494995117188 9 9 9
37.296875000000 20.515625000000 15.004989624023 43 43 43
36.828125000000 20.273437500000 15.485992431641 32 32 32
37.234375000000 20.164062500000 15.509994506836 17 17 17
37.796875000000 20.484375000000 16.037994384766 87 87 87
37.171875000000 20.148437500000 15.957992553711 47 47 47
37.359375000000 19.906250000000 15.532989501953 119 119 119
37.359375000000 19.906250000000 15.686996459961 57 57 57
38.234375000000 19.476562500000 16.300003051758 12 12 12
38.328125000000 19.523437500000 17.022994995117 16 16 16
37.484375000000 19.710937500000 15.705001831055 15 15 15
38.078125000000 20.414062500000 16.162994384766 49 49 49
37.171875000000 19.929687500000 15.897994995117 6 6 6
37.296875000000 20.335937500000 13.468002319336 11 11 11
37.296875000000 20.328125000000 15.067001342773 17 17 17
37.046875000000 20.210937500000 15.371994018555 19 19 19
36.859375000000 20.117187500000 15.416992187500 39 39 39
37.171875000000 20.273437500000 16.074996948242 70 70 70
36.296875000000 19.812500000000 15.645996093750 25 25 25
37.562500000000 20.875000000000 5.347991943359 7 7 7
37.281250000000 20.695312500000 12.542999267578 13 13 13
36.859375000000 20.437500000000 15.593002319336 94 94 94
37.656250000000 20.882812500000 14.742996215820 9 9 9
37.015625000000 20.531250000000 15.097000122070 28 28 28
37.843750000000 20.984375000000 15.778991699219 15 15 15
37.015625000000 20.523437500000 15.541000366211 123 123 123
37.750000000000 20.914062500000 15.871994018555 48 48 48
37.406250000000 21.187500000000 2.453994750977 124 124 124
37.406250000000 21.171875000000 2.690994262695 125 125 125
37.406250000000 21.179687500000 2.808990478516 113 113 113
37.375000000000 21.179687500000 2.927993774414 89 89 89
37.375000000000 21.179687500000 3.046997070313 87 87 87
37.468750000000 21.179687500000 10.175994873047 18 18 18
37.468750000000 21.171875000000 10.429000854492 18 18 18
37.437500000000 21.164062500000 10.550994873047 27 27 27
37.468750000000 21.171875000000 10.688995361328 23 23 23
37.468750000000 21.179687500000 10.823989868164 44 44 44
37.468750000000 21.171875000000 10.950988769531 55 55 55
37.468750000000 21.171875000000 11.082000732422 92 92 92
37.437500000000 21.156250000000 11.205001831055 93 93 93
37.468750000000 21.171875000000 11.345001220703 21 21 21
37.500000000000 21.187500000000 11.486999511719 36 36 36
37.437500000000 21.148437500000 12.408996582031 148 148 148
37.437500000000 21.148437500000 12.547988891602 163 163 163
37.406250000000 21.132812500000 12.668991088867 154 154 154
37.437500000000 21.148437500000 12.825988769531 103 103 103
37.406250000000 21.125000000000 12.940002441406 136 136 136
37.375000000000 21.171875000000 1.741989135742 21 21 21
37.375000000000 21.179687500000 1.860992431641 57 57 57
37.406250000000 21.195312500000 1.976989746094 26 26 26
37.406250000000 21.187500000000 2.097991943359 10 10 10
37.406250000000 21.187500000000 2.215988159180 98 98 98
37.375000000000 21.179687500000 2.335998535156 103 103 103
37.375000000000 21.179687500000 2.572998046875 115 115 115
37.375000000000 21.179687500000 3.164993286133 63 63 63
37.375000000000 21.179687500000 3.282989501953 27 27 27
37.375000000000 21.164062500000 3.401992797852 14 14 14
37.375000000000 21.164062500000 3.873001098633 12 12 12
37.375000000000 21.156250000000 3.989990234375 17 17 17
37.375000000000 21.164062500000 4.108001708984 14 14 14
37.500000000000 21.187500000000 10.050994873047 12 12 12
37.468750000000 21.179687500000 11.616989135742 38 38 38
37.531250000000 21.195312500000 11.769989013672 14 14 14
37.437500000000 21.148437500000 12.276000976563 40 40 40
37.468750000000 21.148437500000 13.117996215820 53 53 53
37.500000000000 21.164062500000 14.129989624023 26 26 26
37.500000000000 21.171875000000 14.282989501953 109 109 109
37.500000000000 21.164062500000 14.569000244141 117 117 117
37.625000000000 21.210937500000 15.395996093750 89 89 89
38.031250000000 21.445312500000 16.147003173828 8 8 8
36.515625000000 20.609375000000 15.595001220703 55 55 55
37.125000000000 21.390625000000 11.302001953125 83 83 83
37.218750000000 21.437500000000 12.407989501953 63 63 63
36.937500000000 21.265625000000 14.642990112305 161 161 161
35.140625000000 20.289062500000 14.774002075195 171 171 171
35.546875000000 20.507812500000 15.194992065430 157 157 157
35.515625000000 20.476562500000 15.897994995117 66 66 66
35.453125000000 20.445312500000 16.003997802734 29 29 29
35.390625000000 20.406250000000 16.112991333008 77 77 77
37.750000000000 21.726562500000 11.682998657227 31 31 31
36.968750000000 21.281250000000 12.682998657227 36 36 36
37.125000000000 21.382812500000 13.041000366211 27 27 27
36.718750000000 21.148437500000 14.078994750977 23 23 23
36.562500000000 21.070312500000 14.134994506836 7 7 7
36.906250000000 21.250000000000 14.481994628906 27 27 27
37.500000000000 21.562500000000 15.127990722656 52 52 52
37.406250000000 21.523437500000 15.381988525391 23 23 23
35.906250000000 20.710937500000 15.608993530273 111 111 111
37.703125000000 22.140625000000 2.332000732422 19 19 19
37.984375000000 22.273437500000 11.593002319336 31 31 31
36.875000000000 21.664062500000 11.274002075195 54 54 54
36.218750000000 21.296875000000 12.656997680664 19 19 19
36.343750000000 21.359375000000 12.987991333008 70 70 70
34.859375000000 20.539062500000 14.649002075195 188 188 188
34.671875000000 20.437500000000 14.667999267578 160 160 160
35.093750000000 20.671875000000 15.256988525391 169 169 169
35.125000000000 20.703125000000 15.427993774414 143 143 143
35.343750000000 20.820312500000 15.728988647461 119 119 119
35.281250000000 20.765625000000 15.807998657227 125 125 125
35.375000000000 20.812500000000 16.030990600586 53 53 53
36.531250000000 21.460937500000 12.024993896484 19 19 19
37.031250000000 21.734375000000 12.386993408203 21 21 21
37.156250000000 21.804687500000 12.998001098633 22 22 22
38.109375000000 22.320312500000 13.918991088867 9 9 9
34.953125000000 20.609375000000 13.011001586914 23 23 23
36.906250000000 21.664062500000 14.410995483398 11 11 11
34.546875000000 20.382812500000 13.409988403320 12 12 12
35.062500000000 20.656250000000 14.667999267578 117 117 117
37.578125000000 22.468750000000 2.267990112305 17 17 17
37.609375000000 22.484375000000 2.503997802734 10 10 10
36.531250000000 21.843750000000 11.296997070313 90 90 90
36.437500000000 21.789062500000 11.382995605469 79 79 79
38.234375000000 22.773437500000 12.294998168945 100 100 100
38.171875000000 22.734375000000 12.404998779297 78 78 78
37.953125000000 22.601562500000 12.444992065430 20 20 20
35.875000000000 21.484375000000 12.654998779297 110 110 110
35.750000000000 21.414062500000 12.718994140625 53 53 53
35.906250000000 21.500000000000 12.935989379883 86 86 86
35.437500000000 21.250000000000 13.072998046875 60 60 60
36.828125000000 22.023437500000 12.351989746094 11 11 11
35.875000000000 21.492187500000 12.528991699219 31 31 31
35.968750000000 21.539062500000 13.235000610352 95 95 95
35.156250000000 21.093750000000 13.039993286133 49 49 49
34.687500000000 20.835937500000 14.598999023438 7 7 7
34.437500000000 20.710937500000 14.699996948242 110 110 110
34.281250000000 20.625000000000 14.726989746094 89 89 89
34.593750000000 20.789062500000 14.677993774414 39 39 39
36.484375000000 22.156250000000 11.192993164063 21 21 21
34.937500000000 21.312500000000 12.819000244141 100 100 100
35.031250000000 21.359375000000 12.992996215820 114 114 114
35.031250000000 21.359375000000 14.453002929688 62 62 62
35.968750000000 21.882812500000 11.218994140625 42 42 42
35.968750000000 21.867187500000 13.136993408203 26 26 26
35.000000000000 21.328125000000 12.723999023438 138 138 138
34.156250000000 20.890625000000 12.990997314453 64 64 64
34.781250000000 21.218750000000 14.416000366211 10 10 10
34.718750000000 21.171875000000 15.056991577148 14 14 14
35.093750000000 21.375000000000 15.757995605469 37 37 37
35.031250000000 21.343750000000 15.851989746094 46 46 46
35.875000000000 21.796875000000 14.705993652344 5 5 5
35.500000000000 21.937500000000 14.662002563477 119 119 119
35.515625000000 21.960937500000 12.546997070313 123 123 123
35.859375000000 22.132812500000 12.850997924805 10 10 10
35.156250000000 21.773437500000 12.989990234375 87 87 87
35.000000000000 21.664062500000 13.139999389648 15 15 15
35.406250000000 21.882812500000 14.735000610352 30 30 30
35.031250000000 21.679687500000 15.175994873047 81 81 81
36.859375000000 22.687500000000 12.167999267578 7 7 7
34.750000000000 21.929687500000 12.819992065430 73 73 73
36.046875000000 23.054687500000 12.187988281250 60 60 60
36.531250000000 23.328125000000 12.169998168945 21 21 21
36.171875000000 23.125000000000 12.125991821289 14 14 14
36.140625000000 23.109375000000 12.632995605469 7 7 7
35.828125000000 22.937500000000 12.599990844727 17 17 17
36.281250000000 23.601562500000 12.259994506836 59 59 59
36.062500000000 23.476562500000 12.534988403320 31 31 31
35.718750000000 23.289062500000 12.490997314453 97 97 97
35.296875000000 23.054687500000 12.397994995117 127 127 127
35.265625000000 23.023437500000 12.498992919922 29 29 29
34.203125000000 20.328125000000 13.524993896484 3 3 3
34.109375000000 20.390625000000 13.326995849609 58 58 58
34.609375000000 20.453125000000 14.659988403320 14 14 14
34.828125000000 20.320312500000 14.679000854492 79 79 79
34.312500000000 21.062500000000 12.847991943359 21 21 21
34.812500000000 20.757812500000 13.009994506836 47 47 47
35.375000000000 20.718750000000 16.121994018555 9 9 9
34.593750000000 21.218750000000 15.231994628906 16 16 16
35.031250000000 20.960937500000 15.118988037109 26 26 26
34.468750000000 21.304687500000 14.583999633789 77 77 77
34.531250000000 21.265625000000 14.485992431641 43 43 43
35.062500000000 20.945312500000 14.432998657227 14 14 14
34.625000000000 21.234375000000 12.725997924805 15 15 15
35.062500000000 21.312500000000 15.780990600586 76 76 76
34.875000000000 21.429687500000 15.485992431641 144 144 144
34.875000000000 21.406250000000 15.365997314453 136 136 136
34.812500000000 21.476562500000 15.149002075195 120 120 120
34.593750000000 21.601562500000 14.586990356445 137 137 137
37.296875000000 19.921875000000 15.845001220703 71 71 71
34.656250000000 21.585937500000 12.673995971680 60 60 60
35.031250000000 21.359375000000 12.744995117188 51 51 51
34.937500000000 21.367187500000 15.849990844727 11 11 11
34.812500000000 21.468750000000 14.606994628906 191 191 191
34.875000000000 21.429687500000 14.511993408203 40 40 40
35.031250000000 21.343750000000 14.474990844727 87 87 87
36.890625000000 20.187500000000 15.421997070313 21 21 21
35.218750000000 21.234375000000 13.125991821289 80 80 80
35.218750000000 21.570312500000 15.811996459961 53 53 53
35.343750000000 21.492187500000 15.741989135742 109 109 109
35.406250000000 21.445312500000 15.656997680664 111 111 111
35.062500000000 21.679687500000 15.256988525391 144 144 144
34.718750000000 21.875000000000 14.875991821289 133 133 133
34.750000000000 21.867187500000 14.750000000000 138 138 138
34.781250000000 21.867187500000 14.621002197266 189 189 189
36.890625000000 20.570312500000 15.770996093750 90 90 90
36.375000000000 20.867187500000 15.287994384766 167 167 167
35.625000000000 21.328125000000 14.653991699219 32 32 32
35.375000000000 21.523437500000 12.598999023438 24 24 24
37.234375000000 20.367187500000 13.455001831055 17 17 17
36.890625000000 20.640625000000 9.580001831055 30 30 30
34.968750000000 21.734375000000 14.623001098633 24 24 24
35.937500000000 21.140625000000 14.705001831055 43 43 43
35.093750000000 21.679687500000 12.970993041992 29 29 29
35.062500000000 21.710937500000 11.211990356445 18 18 18
35.937500000000 21.132812500000 15.281997680664 23 23 23
35.531250000000 21.742187500000 15.963989257813 36 36 36
35.562500000000 21.726562500000 15.830993652344 67 67 67
34.859375000000 22.148437500000 15.188995361328 193 193 193
34.796875000000 22.203125000000 14.992996215820 133 133 133
34.796875000000 22.203125000000 14.849990844727 133 133 133
34.953125000000 22.101562500000 14.822998046875 162 162 162
35.250000000000 21.937500000000 14.867996215820 188 188 188
35.312500000000 21.898437500000 14.772994995117 135 135 135
36.375000000000 21.226562500000 15.360992431641 152 152 152
36.375000000000 21.226562500000 15.211990356445 42 42 42
36.500000000000 21.164062500000 15.134994506836 174 174 174
35.968750000000 21.500000000000 14.636001586914 34 34 34
37.312500000000 20.679687500000 13.281997680664 18 18 18
36.281250000000 21.351562500000 12.599990844727 9 9 9
37.125000000000 20.765625000000 16.011993408203 23 23 23
35.718750000000 21.671875000000 13.110992431641 31 31 31
35.750000000000 21.656250000000 12.993988037109 24 24 24
35.437500000000 21.859375000000 12.560989379883 20 20 20
35.515625000000 22.140625000000 15.590988159180 172 172 172
35.640625000000 22.078125000000 15.509002685547 142 142 142
35.578125000000 22.101562500000 15.332992553711 120 120 120
35.078125000000 22.429687500000 14.822998046875 132 132 132
35.296875000000 22.281250000000 14.847000122070 128 128 128
35.421875000000 22.218750000000 14.784988403320 69 69 69
36.156250000000 21.765625000000 15.138992309570 120 120 120
37.625000000000 20.851562500000 15.957992553711 75 75 75
35.703125000000 22.039062500000 14.561996459961 32 32 32
36.718750000000 21.421875000000 15.048995971680 22 22 22
36.812500000000 21.382812500000 14.955001831055 81 81 81
35.109375000000 22.453125000000 12.445999145508 20 20 20
37.281250000000 21.101562500000 13.481002807617 29 29 29
36.843750000000 21.382812500000 13.097000122070 23 23 23
36.906250000000 21.351562500000 12.715988159180 36 36 36
37.093750000000 21.226562500000 12.680999755859 61 61 61
35.703125000000 22.093750000000 11.128997802734 86 86 86
37.406250000000 21.070312500000 11.584991455078 63 63 63
37.406250000000 21.070312500000 11.448989868164 85 85 85
37.406250000000 21.062500000000 11.320999145508 88 88 88
37.406250000000 21.078125000000 11.177001953125 65 65 65
37.375000000000 21.085937500000 11.037002563477 75 75 75
37.406250000000 21.078125000000 10.910995483398 93 93 93
37.406250000000 21.085937500000 10.780990600586 111 111 111
37.406250000000 21.085937500000 10.647994995117 118 118 118
37.375000000000 21.101562500000 10.513992309570 116 116 116
37.375000000000 21.101562500000 10.384002685547 130 130 130
37.406250000000 21.085937500000 10.255996704102 132 132 132
37.375000000000 21.101562500000 10.121994018555 135 135 135
37.406250000000 21.140625000000 7.235000610352 146 146 146
37.375000000000 21.148437500000 7.111999511719 138 138 138
37.406250000000 21.148437500000 6.991989135742 143 143 143
37.437500000000 21.171875000000 4.942993164063 90 90 90
37.437500000000 21.171875000000 4.823989868164 94 94 94
37.437500000000 21.171875000000 4.703994750977 113 113 113
37.437500000000 21.171875000000 4.583999633789 111 111 111
37.437500000000 21.171875000000 4.463989257813 119 119 119
37.437500000000 21.171875000000 4.343994140625 119 119 119
37.437500000000 21.171875000000 4.224990844727 126 126 126
37.406250000000 21.179687500000 4.104995727539 126 126 126
37.406250000000 21.179687500000 3.985000610352 123 123 123
37.406250000000 21.195312500000 3.865997314453 126 126 126
37.406250000000 21.203125000000 3.626998901367 125 125 125
37.406250000000 21.203125000000 3.266998291016 119 119 119
37.375000000000 21.226562500000 2.789993286133 137 137 137
37.375000000000 21.226562500000 2.668991088867 132 132 132
37.375000000000 21.226562500000 2.548995971680 140 140 140
37.375000000000 21.234375000000 2.429000854492 128 128 128
37.375000000000 21.234375000000 2.188995361328 127 127 127
36.750000000000 21.398437500000 15.687988281250 32 32 32
38.296875000000 20.453125000000 16.222991943359 10 10 10
37.093750000000 21.195312500000 14.543991088867 59 59 59
37.375000000000 21.070312500000 11.715988159180 49 49 49
37.406250000000 21.101562500000 9.994995117188 126 126 126
37.406250000000 21.101562500000 9.865997314453 64 64 64
37.375000000000 21.109375000000 9.479995727539 34 34 34
37.375000000000 21.109375000000 9.352996826172 25 25 25
37.375000000000 21.156250000000 6.869995117188 73 73 73
37.375000000000 21.156250000000 6.748992919922 82 82 82
37.406250000000 21.156250000000 6.629989624023 87 87 87
37.375000000000 21.164062500000 6.384994506836 24 24 24
37.406250000000 21.140625000000 6.266998291016 30 30 30
37.437500000000 21.148437500000 5.425003051758 16 16 16
37.437500000000 21.156250000000 5.304992675781 92 92 92
37.437500000000 21.148437500000 5.184997558594 83 83 83
37.437500000000 21.171875000000 5.063995361328 81 81 81
37.406250000000 21.195312500000 3.746994018555 95 95 95
37.406250000000 21.203125000000 3.506988525391 114 114 114
37.406250000000 21.203125000000 3.388000488281 36 36 36
37.406250000000 21.210937500000 3.149002075195 114 114 114
37.406250000000 21.210937500000 3.027999877930 97 97 97
37.375000000000 21.226562500000 2.909988403320 104 104 104
37.375000000000 21.250000000000 2.310989379883 130 130 130
37.375000000000 21.242187500000 2.069000244141 45 45 45
37.343750000000 21.250000000000 1.830993652344 57 57 57
37.343750000000 21.250000000000 1.708999633789 21 21 21
37.468750000000 20.953125000000 16.168991088867 19 19 19
37.375000000000 21.164062500000 7.352996826172 7 7 7
37.375000000000 21.164062500000 6.143997192383 29 29 29
37.468750000000 21.132812500000 5.787994384766 10 10 10
35.765625000000 22.382812500000 15.552001953125 141 141 141
35.828125000000 22.335937500000 15.450988769531 132 132 132
35.828125000000 22.359375000000 15.289993286133 142 142 142
37.312500000000 21.437500000000 16.158996582031 42 42 42
35.421875000000 22.609375000000 14.741989135742 18 18 18
35.390625000000 22.632812500000 14.572998046875 33 33 33
35.546875000000 22.546875000000 14.530990600586 123 123 123
35.703125000000 22.460937500000 14.479995727539 32 32 32
37.343750000000 21.421875000000 15.399002075195 61 61 61
37.437500000000 21.382812500000 15.140991210938 112 112 112
37.437500000000 21.382812500000 14.993988037109 119 119 119
37.031250000000 21.687500000000 12.447998046875 67 67 67
37.656250000000 21.320312500000 11.226989746094 18 18 18
37.437500000000 21.460937500000 10.220001220703 25 25 25
37.125000000000 21.578125000000 15.699996948242 91 91 91
37.781250000000 21.171875000000 15.817001342773 33 33 33
37.468750000000 21.367187500000 14.858993530273 30 30 30
35.484375000000 22.617187500000 12.602996826172 97 97 97
37.625000000000 21.304687500000 13.304000854492 15 15 15
35.453125000000 22.664062500000 11.328002929688 57 57 57
35.421875000000 22.671875000000 11.201995849609 22 22 22
37.656250000000 21.304687500000 11.908996582031 29 29 29
37.531250000000 21.390625000000 11.716995239258 25 25 25
36.921875000000 22.046875000000 16.617996215820 42 42 42
36.859375000000 22.093750000000 16.406997680664 112 112 112
35.921875000000 22.679687500000 15.578994750977 154 154 154
35.890625000000 22.703125000000 15.406997680664 130 130 130
35.828125000000 22.734375000000 15.222991943359 128 128 128
36.046875000000 22.601562500000 15.226989746094 174 174 174
36.046875000000 22.617187500000 15.073989868164 18 18 18
37.531250000000 21.695312500000 15.748001098633 123 123 123
37.437500000000 21.765625000000 15.531997680664 72 72 72
38.031250000000 21.390625000000 15.597000122070 23 23 23
35.328125000000 23.093750000000 12.451995849609 122 122 122
35.515625000000 22.984375000000 12.419998168945 80 80 80
36.265625000000 22.515625000000 12.681991577148 65 65 65
35.578125000000 22.953125000000 11.328994750977 17 17 17
37.812500000000 21.585937500000 12.048995971680 17 17 17
37.656250000000 21.695312500000 11.698989868164 86 86 86
37.625000000000 21.742187500000 10.211990356445 34 34 34
37.437500000000 21.796875000000 14.155990600586 9 9 9
36.640625000000 22.281250000000 12.341995239258 9 9 9
36.921875000000 22.414062500000 16.194000244141 125 125 125
36.953125000000 22.414062500000 16.042999267578 134 134 134
37.453125000000 22.093750000000 16.237991333008 77 77 77
