27.843750000000 12.601562500000 8.145004272461 104 104 104
24.843750000000 12.585937500000 7.660003662109 70 70 70
27.468750000000 12.609375000000 10.174003601074 69 69 69
24.796875000000 12.585937500000 8.555000305176 21 21 21
26.437500000000 12.609375000000 10.217002868652 39 39 39
19.343750000000 12.601562500000 8.641998291016 85 85 85
19.328125000000 12.593750000000 7.569999694824 153 153 153
27.828125000000 12.859375000000 8.163002014160 122 122 122
27.437500000000 12.867187500000 10.194999694824 82 82 82
24.828125000000 12.851562500000 8.541999816895 47 47 47
26.437500000000 12.859375000000 10.198997497559 68 68 68
19.312500000000 12.851562500000 7.583999633789 162 162 162
19.312500000000 12.851562500000 7.566001892090 113 113 113
27.812500000000 13.117187500000 8.180999755859 91 91 91
24.843750000000 13.101562500000 7.649002075195 71 71 71
27.406250000000 13.125000000000 10.206001281738 67 67 67
24.796875000000 13.109375000000 8.548004150391 70 70 70
26.437500000000 13.117187500000 10.226997375488 91 91 91
19.312500000000 13.101562500000 7.574996948242 158 158 158
27.828125000000 13.367187500000 8.162002563477 94 94 94
24.828125000000 13.351562500000 7.662002563477 17 17 17
27.437500000000 13.367187500000 10.194000244141 22 22 22
27.390625000000 13.367187500000 10.222999572754 19 19 19
24.812500000000 13.351562500000 8.583000183105 19 19 19
26.421875000000 13.367187500000 10.244003295898 104 104 104
19.312500000000 13.351562500000 7.568000793457 154 154 154
27.796875000000 13.601562500000 8.188003540039 169 169 169
24.812500000000 13.593750000000 7.652000427246 70 70 70
27.421875000000 13.617187500000 10.215003967285 80 80 80
24.781250000000 13.601562500000 8.553001403809 63 63 63
26.421875000000 13.617187500000 10.223999023438 23 23 23
26.406250000000 13.609375000000 10.272003173828 21 21 21
19.328125000000 13.601562500000 7.584999084473 149 149 149
19.296875000000 13.593750000000 7.581001281738 143 143 143
27.812500000000 13.859375000000 8.169998168945 92 92 92
24.828125000000 13.851562500000 7.639999389648 54 54 54
27.390625000000 13.867187500000 10.250999450684 45 45 45
24.781250000000 13.851562500000 8.583999633789 29 29 29
26.390625000000 13.859375000000 10.248001098633 104 104 104
19.296875000000 13.851562500000 7.586997985840 151 151 151
27.812500000000 14.109375000000 8.199996948242 137 137 137
24.828125000000 14.109375000000 7.664001464844 64 64 64
27.406250000000 14.125000000000 10.221000671387 21 21 21
27.375000000000 14.125000000000 10.267997741699 12 12 12
24.812500000000 14.109375000000 8.574996948242 36 36 36
26.390625000000 14.117187500000 10.278999328613 103 103 103
19.296875000000 14.101562500000 7.585998535156 156 156 156
19.281250000000 14.101562500000 7.576004028320 156 156 156
27.796875000000 14.375000000000 8.212997436523 111 111 111
24.828125000000 14.359375000000 7.638999938965 24 24 24
27.390625000000 14.375000000000 10.246002197266 52 52 52
24.781250000000 14.359375000000 8.581001281738 73 73 73
26.359375000000 14.367187500000 10.278999328613 86 86 86
19.296875000000 14.359375000000 7.588996887207 150 150 150
27.796875000000 14.617187500000 8.185997009277 35 35 35
27.781250000000 14.625000000000 8.240997314453 12 12 12
24.828125000000 14.617187500000 7.653999328613 71 71 71
27.375000000000 14.640625000000 10.258003234863 84 84 84
24.796875000000 14.617187500000 8.611000061035 40 40 40
26.390625000000 14.625000000000 10.268997192383 23 23 23
26.343750000000 14.632812500000 10.301002502441 25 25 25
19.296875000000 14.601562500000 7.581001281738 152 152 152
19.281250000000 14.601562500000 7.572998046875 40 40 40
27.765625000000 14.875000000000 8.205001831055 116 116 116
24.812500000000 14.859375000000 7.636001586914 22 22 22
27.359375000000 14.882812500000 10.289001464844 62 62 62
24.781250000000 14.867187500000 8.594001770020 42 42 42
26.359375000000 14.875000000000 10.289001464844 87 87 87
19.312500000000 14.859375000000 7.608001708984 135 135 135
19.281250000000 14.867187500000 7.583999633789 173 173 173
27.765625000000 15.125000000000 8.237998962402 81 81 81
24.796875000000 15.109375000000 7.655998229980 62 62 62
27.375000000000 15.132812500000 10.274002075195 36 36 36
24.765625000000 15.117187500000 8.611000061035 62 62 62
26.343750000000 15.132812500000 10.309997558594 100 100 100
19.281250000000 15.109375000000 7.590003967285 151 151 151
27.765625000000 15.375000000000 8.216003417969 131 131 131
24.812500000000 15.359375000000 7.642997741699 56 56 56
27.359375000000 15.375000000000 10.302001953125 81 81 81
24.796875000000 15.359375000000 8.608001708984 30 30 30
26.375000000000 15.382812500000 10.308998107910 35 35 35
26.343750000000 15.382812500000 10.349998474121 18 18 18
19.281250000000 15.359375000000 7.591003417969 170 170 170
19.265625000000 15.367187500000 7.587997436523 96 96 96
27.734375000000 15.632812500000 8.240997314453 110 110 110
24.796875000000 15.609375000000 7.666000366211 44 44 44
27.328125000000 15.632812500000 10.318000793457 71 71 71
24.765625000000 15.617187500000 8.623001098633 74 74 74
26.359375000000 15.625000000000 10.331001281738 93 93 93
19.296875000000 15.609375000000 7.593002319336 74 74 74
19.265625000000 15.617187500000 7.583999633789 175 175 175
27.765625000000 15.882812500000 8.223999023438 21 21 21
27.734375000000 15.882812500000 8.271003723145 17 17 17
24.812500000000 15.867187500000 7.650001525879 52 52 52
27.328125000000 15.890625000000 10.288002014160 6 6 6
27.312500000000 15.882812500000 10.350997924805 21 21 21
24.734375000000 15.867187500000 8.635002136230 30 30 30
26.312500000000 15.882812500000 10.343002319336 100 100 100
19.281250000000 15.859375000000 7.592002868652 126 126 126
27.734375000000 16.140625000000 8.236000061035 108 108 108
24.781250000000 16.117187500000 7.659004211426 51 51 51
27.328125000000 16.148437500000 10.328002929688 55 55 55
24.765625000000 16.125000000000 8.628997802734 45 45 45
26.296875000000 16.132812500000 10.362998962402 86 86 86
19.296875000000 16.117187500000 7.595001220703 149 149 149
19.265625000000 16.125000000000 7.590003967285 162 162 162
27.734375000000 16.390625000000 8.263999938965 99 99 99
24.781250000000 16.367187500000 7.639999389648 59 59 59
27.296875000000 16.398437500000 10.340003967285 77 77 77
24.750000000000 16.375000000000 8.648002624512 65 65 65
26.312500000000 16.390625000000 10.347999572754 63 63 63
19.281250000000 16.367187500000 7.601997375488 145 145 145
27.750000000000 16.648437500000 8.248001098633 81 81 81
24.781250000000 16.617187500000 7.670997619629 45 45 45
27.281250000000 16.648437500000 10.374000549316 27 27 27
24.750000000000 16.625000000000 8.625000000000 18 18 18
26.296875000000 16.632812500000 10.375000000000 105 105 105
19.281250000000 16.617187500000 7.609001159668 147 147 147
27.750000000000 16.882812500000 8.280998229980 121 121 121
24.781250000000 16.867187500000 7.655998229980 67 67 67
27.296875000000 16.890625000000 10.361000061035 67 67 67
24.734375000000 16.875000000000 8.652999877930 73 73 73
26.265625000000 16.890625000000 10.399002075195 93 93 93
19.281250000000 16.867187500000 7.604003906250 165 165 165
19.265625000000 16.875000000000 7.594001770020 177 177 177
27.750000000000 17.148437500000 8.252998352051 11 11 11
27.750000000000 17.148437500000 8.309997558594 36 36 36
24.781250000000 17.125000000000 7.674003601074 23 23 23
27.265625000000 17.148437500000 10.384002685547 92 92 92
24.734375000000 17.125000000000 8.678001403809 22 22 22
26.296875000000 17.140625000000 10.386001586914 44 44 44
26.250000000000 17.140625000000 10.424003601074 10 10 10
19.281250000000 17.125000000000 7.609001159668 66 66 66
19.265625000000 17.132812500000 7.604003906250 168 168 168
27.750000000000 17.398437500000 8.278999328613 86 86 86
24.781250000000 17.375000000000 7.652999877930 55 55 55
27.265625000000 17.406250000000 10.412002563477 78 78 78
24.750000000000 17.382812500000 8.664001464844 38 38 38
26.281250000000 17.398437500000 10.411003112793 82 82 82
19.265625000000 17.367187500000 7.615997314453 148 148 148
27.734375000000 17.656250000000 8.300003051758 126 126 126
24.781250000000 17.632812500000 7.669998168945 59 59 59
27.250000000000 17.664062500000 10.432998657227 24 24 24
24.750000000000 17.648437500000 8.683998107910 78 78 78
26.250000000000 17.656250000000 10.421997070313 103 103 103
19.281250000000 17.625000000000 7.620002746582 149 149 149
19.250000000000 17.632812500000 7.598999023438 154 154 154
27.718750000000 17.906250000000 8.331001281738 79 79 79
24.796875000000 17.882812500000 7.661003112793 56 56 56
27.250000000000 17.914062500000 10.405998229980 66 66 66
24.750000000000 17.890625000000 8.720001220703 20 20 20
26.218750000000 17.914062500000 10.448997497559 91 91 91
19.265625000000 17.882812500000 7.609001159668 160 160 160
27.718750000000 18.156250000000 8.305000305176 103 103 103
24.765625000000 18.140625000000 7.669998168945 27 27 27
27.234375000000 18.164062500000 10.438003540039 79 79 79
24.750000000000 18.140625000000 8.696998596191 71 71 71
26.250000000000 18.156250000000 10.441001892090 69 69 69
19.250000000000 18.132812500000 7.618003845215 157 157 157
19.250000000000 18.140625000000 8.919998168945 88 88 88
27.703125000000 18.398437500000 8.333000183105 86 86 86
24.781250000000 18.382812500000 7.661003112793 66 66 66
27.203125000000 18.406250000000 10.456001281738 21 21 21
24.734375000000 18.382812500000 8.719001770020 29 29 29
26.218750000000 18.406250000000 10.458000183105 98 98 98
19.265625000000 18.382812500000 7.618003845215 199 199 199
19.234375000000 18.382812500000 7.611999511719 190 190 190
27.718750000000 18.656250000000 8.313003540039 39 39 39
24.765625000000 18.640625000000 7.676002502441 28 28 28
27.218750000000 18.664062500000 10.439002990723 67 67 67
24.750000000000 18.640625000000 8.697998046875 41 41 41
26.203125000000 18.648437500000 10.484001159668 85 85 85
19.250000000000 18.632812500000 7.619003295898 183 183 183
19.250000000000 18.640625000000 8.893997192383 79 79 79
27.703125000000 18.906250000000 8.335998535156 112 112 112
24.781250000000 18.882812500000 7.666000366211 56 56 56
27.187500000000 18.914062500000 10.463996887207 91 91 91
24.734375000000 18.890625000000 8.727996826172 72 72 72
26.218750000000 18.914062500000 10.470001220703 18 18 18
26.171875000000 18.914062500000 10.507003784180 57 57 57
19.250000000000 18.882812500000 7.618003845215 158 158 158
19.234375000000 18.882812500000 7.702003479004 158 158 158
27.671875000000 19.164062500000 8.356002807617 102 102 102
24.765625000000 19.148437500000 7.679000854492 43 43 43
27.171875000000 19.171875000000 10.489997863770 70 70 70
24.703125000000 19.148437500000 8.735000610352 28 28 28
26.203125000000 19.164062500000 10.488998413086 76 76 76
19.250000000000 19.132812500000 7.623001098633 165 165 165
19.234375000000 19.140625000000 7.621002197266 178 178 178
27.703125000000 19.406250000000 8.337997436523 30 30 30
27.671875000000 19.414062500000 8.387001037598 8 8 8
24.765625000000 19.390625000000 7.664001464844 59 59 59
27.171875000000 19.414062500000 10.518997192383 27 27 27
24.734375000000 19.398437500000 8.729003906250 55 55 55
26.187500000000 19.414062500000 10.513999938965 92 92 92
19.234375000000 19.382812500000 7.618003845215 142 142 142
19.234375000000 19.390625000000 8.921997070313 90 90 90
27.687500000000 19.664062500000 8.365997314453 127 127 127
24.765625000000 19.640625000000 7.687004089355 19 19 19
27.203125000000 19.664062500000 10.503997802734 75 75 75
24.718750000000 19.648437500000 8.750999450684 44 44 44
26.187500000000 19.664062500000 10.489997863770 12 12 12
26.171875000000 19.656250000000 10.532997131348 65 65 65
19.250000000000 19.640625000000 7.618003845215 171 171 171
19.218750000000 19.632812500000 7.691001892090 157 157 157
27.656250000000 19.906250000000 8.398002624512 53 53 53
24.750000000000 19.882812500000 7.668998718262 70 70 70
27.156250000000 19.914062500000 10.529998779297 77 77 77
24.718750000000 19.898437500000 8.744003295898 39 39 39
26.171875000000 19.914062500000 10.523002624512 78 78 78
19.250000000000 19.890625000000 7.610000610352 181 181 181
19.234375000000 19.882812500000 7.611999511719 179 179 179
27.671875000000 20.164062500000 8.375999450684 91 91 91
24.765625000000 20.148437500000 7.699996948242 25 25 25
27.125000000000 20.171875000000 10.546997070313 36 36 36
24.703125000000 20.148437500000 8.761001586914 78 78 78
26.156250000000 20.164062500000 10.549003601074 82 82 82
19.218750000000 20.140625000000 7.615997314453 149 149 149
19.234375000000 20.148437500000 8.959999084473 82 82 82
27.671875000000 20.414062500000 8.403999328613 120 120 120
24.750000000000 20.390625000000 7.669998168945 59 59 59
27.171875000000 20.429687500000 10.541000366211 31 31 31
24.687500000000 20.398437500000 8.777999877930 33 33 33
26.140625000000 20.414062500000 10.569999694824 96 96 96
19.234375000000 20.390625000000 7.615997314453 171 171 171
19.203125000000 20.382812500000 7.606002807617 155 155 155
27.656250000000 20.671875000000 8.425003051758 92 92 92
24.750000000000 20.648437500000 7.692001342773 51 51 51
27.140625000000 20.679687500000 10.555000305176 82 82 82
24.718750000000 20.656250000000 8.768997192383 40 40 40
26.125000000000 20.671875000000 10.592002868652 76 76 76
19.234375000000 20.640625000000 7.626998901367 76 76 76
19.218750000000 20.640625000000 7.624000549316 172 172 172
19.234375000000 20.648437500000 8.969001770020 91 91 91
27.640625000000 20.914062500000 8.398002624512 79 79 79
24.734375000000 20.890625000000 7.669998168945 60 60 60
27.109375000000 20.929687500000 10.583999633789 78 78 78
24.687500000000 20.898437500000 8.789001464844 62 62 62
26.140625000000 20.921875000000 10.582000732422 78 78 78
19.234375000000 20.890625000000 7.620002746582 187 187 187
19.234375000000 20.890625000000 9.020004272461 85 85 85
27.640625000000 21.164062500000 8.434997558594 103 103 103
24.750000000000 21.148437500000 7.662002563477 20 20 20
27.125000000000 21.171875000000 10.572998046875 52 52 52
24.703125000000 21.156250000000 8.790000915527 55 55 55
26.109375000000 21.164062500000 10.600997924805 93 93 93
19.218750000000 21.140625000000 7.619003295898 179 179 179
19.203125000000 21.140625000000 7.682998657227 160 160 160
27.671875000000 21.398437500000 8.424003601074 17 17 17
27.656250000000 21.406250000000 8.479003906250 24 24 24
24.734375000000 21.390625000000 7.683998107910 69 69 69
27.109375000000 21.421875000000 10.597000122070 88 88 88
24.687500000000 21.398437500000 8.798004150391 73 73 73
26.093750000000 21.414062500000 10.624000549316 73 73 73
19.218750000000 21.390625000000 7.618003845215 64 64 64
19.218750000000 21.390625000000 7.636001586914 157 157 157
19.218750000000 21.390625000000 8.999000549316 75 75 75
27.625000000000 21.656250000000 8.439002990723 114 114 114
27.078125000000 21.664062500000 10.623001098633 96 96 96
24.687500000000 21.648437500000 8.824996948242 33 33 33
26.125000000000 21.671875000000 10.619003295898 66 66 66
26.078125000000 21.664062500000 10.665000915527 15 15 15
19.234375000000 21.640625000000 7.634002685547 165 165 165
27.609375000000 21.921875000000 8.462997436523 128 128 128
24.718750000000 21.898437500000 7.681999206543 70 70 70
27.062500000000 21.929687500000 10.646003723145 67 67 67
24.687500000000 21.914062500000 8.815002441406 25 25 25
26.093750000000 21.921875000000 10.648002624512 90 90 90
19.234375000000 21.890625000000 7.639999389648 172 172 172
19.218750000000 21.898437500000 7.638000488281 186 186 186
19.234375000000 21.890625000000 9.040000915527 89 89 89
27.609375000000 22.171875000000 8.481002807617 96 96 96
24.718750000000 22.148437500000 7.698997497559 15 15 15
27.078125000000 22.187500000000 10.623001098633 7 7 7
27.062500000000 22.179687500000 10.679000854492 19 19 19
24.687500000000 22.156250000000 8.833999633789 70 70 70
26.078125000000 22.179687500000 10.656997680664 96 96 96
19.234375000000 22.148437500000 7.632003784180 45 45 45
19.218750000000 22.140625000000 7.636001586914 182 182 182
27.640625000000 22.429687500000 8.469001770020 112 112 112
24.718750000000 22.398437500000 7.676002502441 63 63 63
27.078125000000 22.437500000000 10.657997131348 86 86 86
24.656250000000 22.414062500000 8.847999572754 44 44 44
26.109375000000 22.421875000000 10.651000976563 15 15 15
26.046875000000 22.421875000000 10.680000305176 85 85 85
19.218750000000 22.390625000000 7.634002685547 176 176 176
19.203125000000 22.382812500000 7.734001159668 158 158 158
19.218750000000 22.390625000000 9.046997070313 92 92 92
27.609375000000 22.664062500000 8.494003295898 108 108 108
24.734375000000 22.648437500000 7.677001953125 43 43 43
27.031250000000 22.679687500000 10.681999206543 88 88 88
24.687500000000 22.656250000000 8.846000671387 41 41 41
26.062500000000 22.679687500000 10.664001464844 72 72 72
19.234375000000 22.640625000000 7.638999938965 151 151 151
19.203125000000 22.648437500000 7.628997802734 177 177 177
19.218750000000 22.648437500000 9.067001342773 79 79 79
27.625000000000 22.914062500000 8.479003906250 69 69 69
27.593750000000 22.906250000000 8.526000976563 13 13 13
24.703125000000 22.890625000000 7.689002990723 37 37 37
27.046875000000 22.921875000000 10.662002563477 5 5 5
27.015625000000 22.921875000000 10.712997436523 19 19 19
24.671875000000 22.898437500000 8.863998413086 73 73 73
26.046875000000 22.914062500000 10.702003479004 92 92 92
19.218750000000 22.890625000000 7.635002136230 145 145 145
19.234375000000 22.898437500000 9.084999084473 94 94 94
27.609375000000 23.156250000000 8.502998352051 126 126 126
24.718750000000 23.140625000000 7.677001953125 60 60 60
27.031250000000 23.164062500000 10.695999145508 72 72 72
24.687500000000 23.148437500000 8.907997131348 25 25 25
26.015625000000 23.171875000000 10.719001770020 90 90 90
19.203125000000 23.140625000000 7.635002136230 181 181 181
19.187500000000 23.148437500000 7.639999389648 178 178 178
19.203125000000 23.140625000000 9.091003417969 68 68 68
27.593750000000 23.414062500000 8.527999877930 130 130 130
24.718750000000 23.398437500000 7.692001342773 52 52 52
27.031250000000 23.429687500000 10.722000122070 77 77 77
24.687500000000 23.406250000000 8.886001586914 19 19 19
26.031250000000 23.414062500000 10.687004089355 12 12 12
26.000000000000 23.414062500000 10.741996765137 85 85 85
19.218750000000 23.398437500000 7.656997680664 34 34 34
19.203125000000 23.390625000000 7.630996704102 180 180 180
19.218750000000 23.398437500000 9.154998779297 98 98 98
27.562500000000 23.671875000000 8.541999816895 92 92 92
24.718750000000 23.648437500000 7.659004211426 46 46 46
27.000000000000 23.679687500000 10.734001159668 97 97 97
24.671875000000 23.664062500000 8.893997192383 71 71 71
26.015625000000 23.679687500000 10.720001220703 68 68 68
25.984375000000 23.671875000000 10.759002685547 24 24 24
19.203125000000 23.640625000000 7.634002685547 165 165 165
19.187500000000 23.648437500000 7.641998291016 102 102 102
19.203125000000 23.640625000000 9.122001647949 73 73 73
27.593750000000 23.921875000000 8.526000976563 95 95 95
24.703125000000 23.898437500000 7.689002990723 47 47 47
26.968750000000 23.937500000000 10.760002136230 64 64 64
24.656250000000 23.914062500000 8.923004150391 60 60 60
26.015625000000 23.929687500000 10.755996704102 79 79 79
19.218750000000 23.898437500000 7.651000976563 127 127 127
19.187500000000 23.898437500000 7.648002624512 171 171 171
19.218750000000 23.898437500000 9.115997314453 60 60 60
27.578125000000 24.164062500000 8.555000305176 102 102 102
24.718750000000 24.140625000000 7.680999755859 68 68 68
27.000000000000 24.164062500000 10.750999450684 74 74 74
24.671875000000 24.148437500000 8.913002014160 57 57 57
25.968750000000 24.171875000000 10.771003723145 85 85 85
19.187500000000 24.148437500000 7.646003723145 145 145 145
19.218750000000 24.148437500000 9.159004211426 69 69 69
19.187500000000 24.148437500000 9.146003723145 89 89 89
27.578125000000 24.398437500000 8.544998168945 79 79 79
24.718750000000 24.382812500000 7.666999816895 40 40 40
26.968750000000 24.414062500000 10.785003662109 87 87 87
24.656250000000 24.398437500000 8.933998107910 55 55 55
25.984375000000 24.406250000000 10.772003173828 68 68 68
19.203125000000 24.390625000000 7.648002624512 196 196 196
19.171875000000 24.398437500000 7.654998779297 145 145 145
19.203125000000 24.390625000000 9.152000427246 57 57 57
27.562500000000 24.648437500000 8.566001892090 130 130 130
24.703125000000 24.632812500000 7.689002990723 59 59 59
26.968750000000 24.656250000000 10.813003540039 47 47 47
24.656250000000 24.632812500000 8.929000854492 14 14 14
25.984375000000 24.664062500000 10.795997619629 90 90 90
19.203125000000 24.640625000000 7.664001464844 155 155 155
19.187500000000 24.632812500000 7.666999816895 217 217 217
19.218750000000 24.640625000000 9.202003479004 89 89 89
27.562500000000 24.914062500000 8.591003417969 135 135 135
26.953125000000 24.914062500000 10.833000183105 44 44 44
24.640625000000 24.898437500000 8.938003540039 35 35 35
25.984375000000 24.914062500000 10.813003540039 90 90 90
19.187500000000 24.890625000000 7.652000427246 163 163 163
19.156250000000 24.890625000000 7.666999816895 72 72 72
19.187500000000 24.890625000000 9.183998107910 64 64 64
27.546875000000 25.164062500000 8.610000610352 102 102 102
24.703125000000 25.148437500000 7.677001953125 52 52 52
26.968750000000 25.171875000000 10.799003601074 11 11 11
24.640625000000 25.148437500000 8.958999633789 67 67 67
25.953125000000 25.171875000000 10.826004028320 93 93 93
19.187500000000 25.132812500000 7.657997131348 89 89 89
19.171875000000 25.140625000000 7.668998718262 162 162 162
19.203125000000 25.140625000000 9.193000793457 72 72 72
19.171875000000 25.140625000000 9.201004028320 79 79 79
27.562500000000 25.421875000000 8.588996887207 78 78 78
26.937500000000 25.421875000000 10.838996887207 107 107 107
24.640625000000 25.406250000000 8.984001159668 54 54 54
25.968750000000 25.414062500000 10.824996948242 24 24 24
25.937500000000 25.414062500000 10.868003845215 77 77 77
19.171875000000 25.398437500000 7.657997131348 161 161 161
19.156250000000 25.390625000000 7.664001464844 34 34 34
19.187500000000 25.390625000000 9.204002380371 57 57 57
27.546875000000 25.648437500000 8.627998352051 100 100 100
25.953125000000 25.656250000000 10.854003906250 89 89 89
26.921875000000 25.664062500000 10.871002197266 52 52 52
24.687500000000 25.882812500000 7.680000305176 50 50 50
24.640625000000 25.882812500000 8.967002868652 54 54 54
19.156250000000 25.890625000000 7.661003112793 185 185 185
19.140625000000 25.882812500000 7.726997375488 108 108 108
19.156250000000 25.890625000000 9.202003479004 93 93 93
24.671875000000 26.125000000000 7.687004089355 58 58 58
24.593750000000 26.140625000000 8.955001831055 54 54 54
25.921875000000 26.148437500000 10.845001220703 88 88 88
19.171875000000 26.132812500000 7.657997131348 223 223 223
19.140625000000 26.132812500000 7.655998229980 254 254 254
19.171875000000 26.132812500000 9.211997985840 73 73 73
27.515625000000 26.406250000000 8.588996887207 45 45 45
24.656250000000 26.390625000000 7.693000793457 18 18 18
26.906250000000 26.414062500000 10.833999633789 45 45 45
24.625000000000 26.398437500000 8.944000244141 57 57 57
25.890625000000 26.406250000000 10.852996826172 78 78 78
19.156250000000 26.390625000000 7.659004211426 222 222 222
19.140625000000 26.382812500000 7.656997680664 122 122 122
19.156250000000 26.390625000000 9.165000915527 66 66 66
27.500000000000 26.664062500000 8.608001708984 92 92 92
24.656250000000 26.640625000000 7.678001403809 63 63 63
26.890625000000 26.671875000000 10.847000122070 71 71 71
24.578125000000 26.648437500000 8.944000244141 18 18 18
25.921875000000 26.664062500000 10.834999084473 82 82 82
19.156250000000 26.632812500000 7.649002075195 121 121 121
19.125000000000 26.632812500000 7.642997741699 185 185 185
19.171875000000 26.632812500000 9.173004150391 89 89 89
19.125000000000 26.632812500000 9.155998229980 40 40 40
27.500000000000 26.914062500000 8.580001831055 118 118 118
24.640625000000 26.882812500000 7.697998046875 17 17 17
26.906250000000 26.914062500000 10.827003479004 92 92 92
24.578125000000 26.898437500000 8.920997619629 60 60 60
25.937500000000 26.906250000000 10.813003540039 63 63 63
25.890625000000 26.906250000000 10.842002868652 10 10 10
19.140625000000 26.882812500000 7.651000976563 186 186 186
19.125000000000 26.890625000000 7.655998229980 103 103 103
19.140625000000 26.890625000000 9.152000427246 60 60 60
27.500000000000 27.140625000000 8.564002990723 131 131 131
24.656250000000 27.125000000000 7.689002990723 60 60 60
26.890625000000 27.156250000000 10.806999206543 83 83 83
24.593750000000 27.132812500000 8.911003112793 78 78 78
25.921875000000 27.148437500000 10.789001464844 37 37 37
25.875000000000 27.148437500000 10.826004028320 52 52 52
19.156250000000 27.132812500000 7.652000427246 150 150 150
19.140625000000 27.125000000000 7.645004272461 204 204 204
19.156250000000 27.132812500000 9.138999938965 75 75 75
27.515625000000 27.382812500000 8.549003601074 91 91 91
24.625000000000 27.367187500000 7.670997619629 35 35 35
26.890625000000 27.390625000000 10.777999877930 29 29 29
24.578125000000 27.382812500000 8.898002624512 66 66 66
25.875000000000 27.398437500000 10.805000305176 88 88 88
19.140625000000 27.382812500000 7.647003173828 236 236 236
19.125000000000 27.382812500000 7.647003173828 134 134 134
19.140625000000 27.382812500000 9.102996826172 80 80 80
27.484375000000 27.648437500000 8.564002990723 81 81 81
24.609375000000 27.632812500000 7.680999755859 66 66 66
26.859375000000 27.656250000000 10.790000915527 83 83 83
24.562500000000 27.640625000000 8.906997680664 18 18 18
25.890625000000 27.648437500000 10.777000427246 85 85 85
19.140625000000 27.625000000000 7.650001525879 147 147 147
19.109375000000 27.632812500000 7.652999877930 238 238 238
19.093750000000 27.632812500000 7.653999328613 84 84 84
19.156250000000 27.632812500000 9.169998168945 87 87 87
27.500000000000 27.898437500000 8.528999328613 125 125 125
24.593750000000 27.882812500000 7.689002990723 30 30 30
26.875000000000 27.906250000000 10.767997741699 50 50 50
24.562500000000 27.890625000000 8.883003234863 75 75 75
25.875000000000 27.914062500000 10.780998229980 75 75 75
19.125000000000 27.882812500000 7.638000488281 209 209 209
19.109375000000 27.882812500000 7.634002685547 203 203 203
19.125000000000 27.882812500000 9.080001831055 70 70 70
28.140625000000 0.179687500000 8.029998779297 19 19 19
27.937500000000 0.085937500000 9.869003295898 60 60 60
27.937500000000 0.335937500000 9.828002929688 3 3 3
28.109375000000 0.695312500000 8.031997680664 15 15 15
27.937500000000 0.585937500000 9.865997314453 56 56 56
26.921875000000 0.015625000000 9.883003234863 27 27 27
27.906250000000 0.835937500000 9.893997192383 36 36 36
26.906250000000 0.250000000000 9.896003723145 47 47 47
28.109375000000 1.195312500000 8.028999328613 19 19 19
27.921875000000 1.109375000000 9.866996765137 27 27 27
27.890625000000 1.343750000000 9.891998291016 51 51 51
28.093750000000 1.703125000000 8.027999877930 16 16 16
27.906250000000 1.609375000000 9.861000061035 15 15 15
24.968750000000 0.125000000000 7.647003173828 54 54 54
27.875000000000 1.851562500000 9.893997192383 73 73 73
24.953125000000 0.117187500000 8.415000915527 54 54 54
26.890625000000 1.281250000000 9.902999877930 37 37 37
28.078125000000 2.210937500000 8.032997131348 18 18 18
24.968750000000 0.382812500000 7.671997070313 16 16 16
27.843750000000 2.101562500000 9.918998718262 15 15 15
24.968750000000 0.382812500000 8.399002075195 15 15 15
26.875000000000 1.523437500000 9.934997558594 46 46 46
24.953125000000 0.632812500000 7.653999328613 55 55 55
27.859375000000 2.367187500000 9.897003173828 50 50 50
24.937500000000 0.640625000000 8.426002502441 36 36 36
26.875000000000 1.781250000000 9.903999328613 20 20 20
28.093750000000 2.734375000000 8.050003051758 18 18 18
27.843750000000 2.609375000000 9.923004150391 47 47 47
24.937500000000 0.898437500000 8.409004211426 26 26 26
26.843750000000 2.023437500000 9.938003540039 69 69 69
24.968750000000 1.148437500000 7.660003662109 57 57 57
27.859375000000 2.875000000000 9.909004211426 34 34 34
24.953125000000 1.156250000000 8.439002990723 14 14 14
26.843750000000 2.289062500000 9.972000122070 11 11 11
26.859375000000 2.289062500000 9.912002563477 14 14 14
28.062500000000 3.242187500000 8.048004150391 18 18 18
24.968750000000 1.414062500000 7.647003173828 30 30 30
27.812500000000 3.117187500000 9.931999206543 56 56 56
24.953125000000 1.414062500000 8.415000915527 51 51 51
26.843750000000 2.539062500000 9.942001342773 66 66 66
28.062500000000 3.507812500000 8.025001525879 8 8 8
24.953125000000 1.664062500000 7.667999267578 37 37 37
27.828125000000 3.382812500000 9.911003112793 11 11 11
24.968750000000 1.679687500000 8.416999816895 12 12 12
26.828125000000 2.789062500000 9.974998474121 26 26 26
28.046875000000 3.750000000000 8.058998107910 14 14 14
24.968750000000 1.929687500000 7.659004211426 45 45 45
27.812500000000 3.632812500000 9.945999145508 74 74 74
24.921875000000 1.921875000000 8.421997070313 27 27 27
26.796875000000 3.039062500000 9.943000793457 54 54 54
28.015625000000 4.000000000000 8.024002075195 6 6 6
27.781250000000 3.875000000000 9.972999572754 10 10 10
24.953125000000 2.187500000000 8.418998718262 36 36 36
26.796875000000 3.304687500000 9.975997924805 44 44 44
28.031250000000 4.265625000000 8.069999694824 13 13 13
24.953125000000 2.453125000000 7.670997619629 72 72 72
24.937500000000 2.437500000000 7.708999633789 67 67 67
24.937500000000 2.437500000000 7.755996704102 38 38 38
24.968750000000 2.453125000000 7.818000793457 15 15 15
24.953125000000 2.445312500000 7.858001708984 13 13 13
24.953125000000 2.453125000000 8.007003784180 18 18 18
24.953125000000 2.453125000000 8.055000305176 16 16 16
24.937500000000 2.437500000000 8.443000793457 16 16 16
26.796875000000 3.554687500000 9.953002929688 35 35 35
27.781250000000 4.140625000000 9.945999145508 48 48 48
28.015625000000 4.523437500000 8.038002014160 13 13 13
24.953125000000 2.703125000000 7.655998229980 53 53 53
27.765625000000 4.382812500000 9.984001159668 13 13 13
24.937500000000 2.695312500000 8.432998657227 54 54 54
26.781250000000 3.804687500000 9.983001708984 61 61 61
24.953125000000 2.953125000000 7.680999755859 18 18 18
27.765625000000 4.648437500000 9.959999084473 60 60 60
26.765625000000 4.054687500000 9.958999633789 19 19 19
28.031250000000 5.031250000000 8.053001403809 16 16 16
24.953125000000 3.203125000000 7.662002563477 58 58 58
27.718750000000 4.875000000000 9.976997375488 46 46 46
24.937500000000 3.203125000000 8.438003540039 42 42 42
26.765625000000 4.312500000000 9.991996765137 73 73 73
27.984375000000 5.273437500000 8.077003479004 9 9 9
27.750000000000 5.148437500000 9.955001831055 3 3 3
26.734375000000 4.546875000000 10.010002136230 33 33 33
19.406250000000 0.242187500000 8.350997924805 114 114 114
19.421875000000 0.242187500000 7.526000976563 148 148 148
19.406250000000 0.226562500000 7.535003662109 104 104 104
28.015625000000 5.539062500000 8.057998657227 19 19 19
24.921875000000 3.718750000000 7.666000366211 56 56 56
27.750000000000 5.398437500000 9.989997863770 60 60 60
24.921875000000 3.718750000000 8.446998596191 36 36 36
26.750000000000 4.812500000000 9.991996765137 47 47 47
19.421875000000 0.507812500000 8.360000610352 106 106 106
19.421875000000 0.507812500000 7.541999816895 124 124 124
19.406250000000 0.492187500000 7.530998229980 142 142 142
27.984375000000 5.781250000000 8.082000732422 10 10 10
24.937500000000 3.976562500000 7.652999877930 46 46 46
27.718750000000 5.648437500000 10.018997192383 31 31 31
24.921875000000 3.976562500000 8.429000854492 14 14 14
26.718750000000 5.054687500000 10.013000488281 70 70 70
19.421875000000 0.765625000000 8.362998962402 115 115 115
19.406250000000 0.750000000000 8.347999572754 53 53 53
19.406250000000 0.750000000000 7.538002014160 147 147 147
27.984375000000 6.039062500000 8.056999206543 13 13 13
24.937500000000 4.234375000000 7.677001953125 25 25 25
27.734375000000 5.898437500000 9.995002746582 46 46 46
24.906250000000 4.226562500000 8.445999145508 34 34 34
26.750000000000 5.320312500000 9.999000549316 17 17 17
26.718750000000 5.304687500000 10.049003601074 10 10 10
19.406250000000 1.015625000000 8.363998413086 113 113 113
19.406250000000 1.007812500000 7.522003173828 150 150 150
19.390625000000 1.007812500000 7.525001525879 74 74 74
27.953125000000 6.289062500000 8.081001281738 9 9 9
24.921875000000 4.492187500000 7.655998229980 54 54 54
27.703125000000 6.148437500000 10.021003723145 42 42 42
24.921875000000 4.492187500000 8.437004089355 18 18 18
26.718750000000 5.562500000000 10.018997192383 75 75 75
19.437500000000 1.273437500000 8.356002807617 84 84 84
19.421875000000 1.273437500000 8.309997558594 133 133 133
19.406250000000 1.265625000000 7.540000915527 152 152 152
19.390625000000 1.250000000000 7.548004150391 141 141 141
27.984375000000 6.554687500000 8.063003540039 15 15 15
24.890625000000 4.742187500000 8.457000732422 32 32 32
26.718750000000 5.812500000000 10.049003601074 38 38 38
19.406250000000 1.531250000000 8.376998901367 119 119 119
19.390625000000 1.515625000000 8.363998413086 56 56 56
19.390625000000 1.515625000000 7.537002563477 142 142 142
27.968750000000 6.789062500000 8.081001281738 20 20 20
24.921875000000 5.000000000000 7.661003112793 52 52 52
27.687500000000 6.648437500000 10.013000488281 51 51 51
26.703125000000 6.062500000000 10.013999938965 22 22 22
26.671875000000 6.046875000000 10.057998657227 4 4 4
19.390625000000 1.773437500000 8.375999450684 111 111 111
19.390625000000 1.773437500000 7.534004211426 154 154 154
19.375000000000 1.757812500000 7.534004211426 104 104 104
27.656250000000 6.898437500000 10.046997070313 48 48 48
24.890625000000 5.250000000000 8.459999084473 51 51 51
26.687500000000 6.320312500000 10.041999816895 77 77 77
19.406250000000 2.039062500000 8.386001586914 113 113 113
19.406250000000 2.031250000000 7.538002014160 111 111 111
19.390625000000 2.023437500000 7.541000366211 154 154 154
27.968750000000 7.312500000000 8.094001770020 19 19 19
24.921875000000 5.507812500000 7.666999816895 56 56 56
26.671875000000 6.546875000000 10.060997009277 40 40 40
19.406250000000 2.289062500000 8.388999938965 62 62 62
19.390625000000 2.281250000000 8.386001586914 104 104 104
19.390625000000 2.273437500000 7.538002014160 147 147 147
27.656250000000 7.398437500000 10.046997070313 48 48 48
24.875000000000 5.757812500000 8.457000732422 45 45 45
26.687500000000 6.820312500000 10.039001464844 31 31 31
19.390625000000 2.539062500000 8.389999389648 97 97 97
19.375000000000 2.539062500000 7.537002563477 152 152 152
19.359375000000 2.531250000000 7.549003601074 94 94 94
27.968750000000 7.835937500000 8.088996887207 14 14 14
24.890625000000 6.015625000000 7.656997680664 55 55 55
27.625000000000 7.640625000000 10.058998107910 52 52 52
24.875000000000 6.007812500000 8.484001159668 17 17 17
26.640625000000 7.054687500000 10.055000305176 63 63 63
19.390625000000 2.796875000000 8.399002075195 105 105 105
19.375000000000 2.789062500000 8.395004272461 86 86 86
19.390625000000 2.789062500000 7.550003051758 74 74 74
19.375000000000 2.781250000000 7.538002014160 147 147 147
27.953125000000 8.070312500000 8.111000061035 16 16 16
24.890625000000 6.273437500000 7.675003051758 22 22 22
27.625000000000 7.898437500000 10.091003417969 31 31 31
24.890625000000 6.273437500000 8.462997436523 15 15 15
26.640625000000 7.304687500000 10.073997497559 73 73 73
19.375000000000 3.054687500000 8.399002075195 103 103 103
19.375000000000 3.039062500000 7.535003662109 157 157 157
19.359375000000 3.039062500000 7.537002563477 83 83 83
24.906250000000 6.523437500000 7.659004211426 48 48 48
27.609375000000 8.148437500000 10.050003051758 13 13 13
24.890625000000 6.515625000000 8.481002807617 45 45 45
26.625000000000 7.562500000000 10.105003356934 26 26 26
19.390625000000 3.304687500000 8.399002075195 110 110 110
19.375000000000 3.289062500000 8.403999328613 71 71 71
19.375000000000 3.304687500000 7.556999206543 131 131 131
19.375000000000 3.289062500000 7.543998718262 145 145 145
27.921875000000 8.562500000000 8.106002807617 19 19 19
24.906250000000 6.773437500000 7.680000305176 22 22 22
27.609375000000 8.398437500000 10.083999633789 57 57 57
26.656250000000 7.820312500000 10.087997436523 47 47 47
19.375000000000 3.554687500000 8.410003662109 110 110 110
19.375000000000 3.554687500000 7.542999267578 133 133 133
27.937500000000 8.828125000000 8.139999389648 14 14 14
24.906250000000 7.039062500000 7.664001464844 43 43 43
27.593750000000 8.632812500000 10.112998962402 41 41 41
24.875000000000 7.023437500000 8.482002258301 40 40 40
26.609375000000 8.062500000000 10.098999023438 77 77 77
19.375000000000 3.804687500000 8.410003662109 118 118 118
19.359375000000 3.804687500000 7.550003051758 161 161 161
19.343750000000 3.796875000000 7.545997619629 129 129 129
24.906250000000 7.289062500000 7.680999755859 39 39 39
27.562500000000 8.875000000000 10.122001647949 4 4 4
24.859375000000 7.273437500000 8.498001098633 18 18 18
26.593750000000 8.304687500000 10.121002197266 43 43 43
19.375000000000 4.078125000000 8.411003112793 45 45 45
19.359375000000 4.070312500000 8.431999206543 108 108 108
19.375000000000 4.062500000000 7.549003601074 124 124 124
19.359375000000 4.054687500000 7.534004211426 158 158 158
27.921875000000 9.328125000000 8.127998352051 19 19 19
24.906250000000 7.539062500000 7.664001464844 33 33 33
27.593750000000 9.156250000000 10.110000610352 29 29 29
24.875000000000 7.531250000000 8.483001708984 18 18 18
26.593750000000 8.570312500000 10.086997985840 17 17 17
19.375000000000 4.312500000000 8.419998168945 114 114 114
19.359375000000 4.312500000000 7.543998718262 162 162 162
19.343750000000 4.304687500000 7.541999816895 64 64 64
24.906250000000 7.796875000000 7.679000854492 52 52 52
27.546875000000 9.382812500000 10.124000549316 56 56 56
24.875000000000 7.781250000000 8.500000000000 47 47 47
26.578125000000 8.804687500000 10.111000061035 65 65 65
19.375000000000 4.578125000000 8.430999755859 73 73 73
19.359375000000 4.570312500000 8.416999816895 104 104 104
19.359375000000 4.578125000000 7.545997619629 162 162 162
19.359375000000 4.562500000000 7.551002502441 132 132 132
27.906250000000 9.835937500000 8.125999450684 14 14 14
24.906250000000 8.054687500000 7.663002014160 25 25 25
27.546875000000 9.632812500000 10.157997131348 32 32 32
26.562500000000 9.054687500000 10.139999389648 61 61 61
19.375000000000 4.828125000000 8.441001892090 100 100 100
19.375000000000 4.820312500000 7.579002380371 42 42 42
19.359375000000 4.820312500000 7.554000854492 152 152 152
27.906250000000 10.085937500000 8.155998229980 13 13 13
24.875000000000 8.304687500000 7.676002502441 57 57 57
27.562500000000 9.898437500000 10.125000000000 18 18 18
24.859375000000 8.289062500000 8.502998352051 48 48 48
26.593750000000 9.320312500000 10.127998352051 10 10 10
26.531250000000 9.289062500000 10.154998779297 11 11 11
19.375000000000 5.085937500000 8.432998657227 114 114 114
19.359375000000 5.085937500000 7.546997070313 157 157 157
24.890625000000 8.554687500000 7.657997131348 17 17 17
27.546875000000 10.140625000000 10.152999877930 55 55 55
24.859375000000 8.539062500000 8.525001525879 14 14 14
26.546875000000 9.562500000000 10.138000488281 58 58 58
19.359375000000 5.335937500000 8.434997558594 107 107 107
19.375000000000 5.335937500000 7.556999206543 140 140 140
19.359375000000 5.328125000000 7.542999267578 152 152 152
27.875000000000 10.585937500000 8.148002624512 18 18 18
24.875000000000 8.812500000000 7.677001953125 48 48 48
27.515625000000 10.382812500000 10.180000305176 37 37 37
24.859375000000 8.804687500000 8.510002136230 20 20 20
26.531250000000 9.804687500000 10.157997131348 74 74 74
19.359375000000 5.593750000000 8.444000244141 114 114 114
19.359375000000 5.585937500000 7.545997619629 159 159 159
27.531250000000 10.640625000000 10.150001525879 13 13 13
24.859375000000 9.054687500000 8.527999877930 41 41 41
26.531250000000 10.046875000000 10.179000854492 28 28 28
19.375000000000 5.851562500000 8.454002380371 82 82 82
19.359375000000 5.835937500000 8.445999145508 100 100 100
19.359375000000 5.843750000000 7.540000915527 147 147 147
19.343750000000 5.828125000000 7.546997070313 68 68 68
27.890625000000 11.093750000000 8.154998779297 9 9 9
24.859375000000 9.312500000000 7.679000854492 54 54 54
27.515625000000 10.890625000000 10.179000854492 50 50 50
24.843750000000 9.304687500000 8.507003784180 13 13 13
26.546875000000 10.304687500000 10.161003112793 58 58 58
19.343750000000 6.101562500000 8.453002929688 104 104 104
19.359375000000 6.101562500000 7.553001403809 159 159 159
19.343750000000 6.093750000000 7.543998718262 162 162 162
27.843750000000 11.335937500000 8.174003601074 14 14 14
27.500000000000 11.132812500000 10.202003479004 43 43 43
24.828125000000 9.562500000000 8.527000427246 52 52 52
26.515625000000 10.554687500000 10.176002502441 80 80 80
19.359375000000 6.359375000000 8.461997985840 120 120 120
19.359375000000 6.359375000000 7.584999084473 111 111 111
19.343750000000 6.343750000000 7.551002502441 168 168 168
24.859375000000 9.828125000000 7.679000854492 61 61 61
27.468750000000 11.375000000000 10.225997924805 13 13 13
26.500000000000 10.796875000000 10.207000732422 54 54 54
19.343750000000 6.609375000000 8.477996826172 114 114 114
19.343750000000 6.609375000000 7.548004150391 180 180 180
19.328125000000 6.601562500000 7.555000305176 138 138 138
27.875000000000 11.859375000000 8.182998657227 15 15 15
27.484375000000 11.640625000000 10.201004028320 46 46 46
24.843750000000 10.070312500000 8.534004211426 51 51 51
26.515625000000 11.070312500000 10.185997009277 46 46 46
19.343750000000 6.859375000000 8.479003906250 102 102 102
19.359375000000 6.859375000000 7.552001953125 190 190 190
19.343750000000 6.851562500000 7.546997070313 150 150 150
24.875000000000 10.335937500000 7.687004089355 46 46 46
27.468750000000 11.875000000000 10.227996826172 37 37 37
26.500000000000 11.304687500000 10.212997436523 82 82 82
19.359375000000 7.125000000000 8.479003906250 112 112 112
19.359375000000 7.125000000000 7.570999145508 149 149 149
19.343750000000 7.109375000000 7.560997009277 171 171 171
27.859375000000 12.351562500000 8.183998107910 10 10 10
27.468750000000 12.132812500000 10.196998596191 9 9 9
24.812500000000 10.570312500000 8.537002563477 34 34 34
26.468750000000 11.562500000000 10.240997314453 52 52 52
19.328125000000 7.367187500000 8.494003295898 109 109 109
19.328125000000 7.367187500000 7.570999145508 157 157 157
19.312500000000 7.351562500000 7.566001892090 54 54 54
27.828125000000 12.585937500000 8.204002380371 15 15 15
24.843750000000 10.851562500000 7.688003540039 54 54 54
27.437500000000 12.382812500000 10.224998474121 51 51 51
24.812500000000 10.828125000000 8.559997558594 24 24 24
26.484375000000 11.820312500000 10.217002868652 35 35 35
19.328125000000 7.632812500000 8.495002746582 110 110 110
19.343750000000 7.625000000000 7.563003540039 173 173 173
19.328125000000 7.617187500000 7.563003540039 172 172 172
27.421875000000 12.632812500000 10.261001586914 38 38 38
24.828125000000 11.085937500000 8.545997619629 21 21 21
26.468750000000 12.062500000000 10.238998413086 73 73 73
19.343750000000 7.882812500000 8.501998901367 91 91 91
19.343750000000 7.882812500000 7.591003417969 159 159 159
19.328125000000 7.867187500000 7.564002990723 186 186 186
27.843750000000 13.117187500000 8.219001770020 16 16 16
24.843750000000 11.351562500000 7.685997009277 47 47 47
27.453125000000 12.898437500000 10.237998962402 13 13 13
24.828125000000 11.343750000000 8.573997497559 27 27 27
26.437500000000 12.304687500000 10.265998840332 37 37 37
19.328125000000 8.132812500000 8.573997497559 109 109 109
19.328125000000 8.132812500000 7.559997558594 214 214 214
19.312500000000 8.125000000000 7.576004028320 87 87 87
24.843750000000 11.609375000000 7.673004150391 15 15 15
27.406250000000 13.140625000000 10.268997192383 52 52 52
24.812500000000 11.601562500000 8.558998107910 18 18 18
26.453125000000 12.570312500000 10.246002197266 26 26 26
19.343750000000 8.390625000000 8.501998901367 116 116 116
19.343750000000 8.382812500000 7.569999694824 150 150 150
19.312500000000 8.375000000000 7.573997497559 130 130 130
27.812500000000 13.617187500000 8.222999572754 15 15 15
24.828125000000 11.867187500000 7.702003479004 48 48 48
24.812500000000 11.859375000000 8.127998352051 17 17 17
24.812500000000 11.851562500000 8.169998168945 16 16 16
24.828125000000 11.867187500000 8.237998962402 15 15 15
24.812500000000 11.851562500000 8.273002624512 14 14 14
24.812500000000 11.859375000000 8.383003234863 13 13 13
24.812500000000 11.851562500000 8.423004150391 17 17 17
24.812500000000 11.851562500000 8.481002807617 17 17 17
24.812500000000 11.851562500000 8.529998779297 62 62 62
24.796875000000 11.851562500000 8.574996948242 80 80 80
26.421875000000 12.812500000000 10.268997192383 73 73 73
19.328125000000 8.648437500000 7.578002929688 146 146 146
19.312500000000 8.632812500000 7.577003479004 164 164 164
27.390625000000 13.382812500000 10.295997619629 22 22 22
27.812500000000 13.859375000000 8.249000549316 15 15 15
24.843750000000 12.117187500000 7.680999755859 16 16 16
27.406250000000 13.648437500000 10.265998840332 8 8 8
26.406250000000 13.054687500000 10.291000366211 66 66 66
19.312500000000 8.898437500000 8.535003662109 102 102 102
19.312500000000 8.898437500000 7.568000793457 164 164 164
19.296875000000 8.882812500000 7.571998596191 53 53 53
24.843750000000 12.367187500000 7.701004028320 51 51 51
27.390625000000 13.882812500000 10.294998168945 52 52 52
24.812500000000 12.351562500000 8.580001831055 44 44 44
26.406250000000 13.320312500000 10.271003723145 14 14 14
19.328125000000 9.156250000000 8.527999877930 114 114 114
19.328125000000 9.148437500000 7.573997497559 195 195 195
19.312500000000 9.148437500000 7.577003479004 177 177 177
27.796875000000 14.367187500000 8.245002746582 18 18 18
24.843750000000 12.617187500000 7.680000305176 47 47 47
27.359375000000 14.140625000000 10.322998046875 38 38 38
24.812500000000 12.601562500000 8.612998962402 14 14 14
26.390625000000 13.562500000000 10.295997619629 70 70 70
19.328125000000 9.406250000000 7.564002990723 152 152 152
19.312500000000 9.398437500000 7.578002929688 180 180 180
24.828125000000 12.867187500000 7.701004028320 40 40 40
27.375000000000 14.398437500000 10.300003051758 6 6 6
27.343750000000 14.382812500000 10.347999572754 11 11 11
24.796875000000 12.867187500000 8.586997985840 25 25 25
26.390625000000 13.812500000000 10.321998596191 73 73 73
19.312500000000 9.664062500000 8.554000854492 117 117 117
19.312500000000 9.664062500000 7.577003479004 219 219 219
19.281250000000 9.648437500000 7.564002990723 135 135 135
27.796875000000 14.882812500000 8.254997253418 14 14 14
24.828125000000 13.125000000000 7.683998107910 55 55 55
27.375000000000 14.656250000000 10.335998535156 40 40 40
24.796875000000 13.109375000000 8.608001708984 42 42 42
26.390625000000 14.062500000000 10.288002014160 4 4 4
26.359375000000 14.054687500000 10.345001220703 15 15 15
19.312500000000 9.914062500000 8.558998107910 92 92 92
19.312500000000 9.906250000000 7.574996948242 209 209 209
19.296875000000 9.906250000000 7.558998107910 179 179 179
27.796875000000 15.132812500000 8.288002014160 16 16 16
24.828125000000 13.375000000000 7.706001281738 24 24 24
27.343750000000 14.882812500000 10.348999023438 45 45 45
26.359375000000 14.312500000000 10.319000244141 61 61 61
19.312500000000 10.171875000000 7.577003479004 159 159 159
19.312500000000 10.164062500000 7.569999694824 204 204 204
24.828125000000 13.625000000000 7.688003540039 51 51 51
27.328125000000 15.125000000000 10.383003234863 13 13 13
24.796875000000 13.617187500000 8.619003295898 47 47 47
26.343750000000 14.546875000000 10.341003417969 73 73 73
19.312500000000 10.421875000000 8.564002990723 115 115 115
19.312500000000 10.421875000000 7.570999145508 179 179 179
19.296875000000 10.414062500000 7.577003479004 86 86 86
27.750000000000 15.625000000000 8.284004211426 16 16 16
