21.781250000000 7.859375000000 8.800994873047 144 144 144
22.343750000000 8.125000000000 10.679000854492 99 99 99
21.312500000000 7.593750000000 10.774993896484 192 192 192
19.390625000000 6.593750000000 7.437988281250 161 161 161
23.109375000000 8.929687500000 8.703994750977 60 60 60
23.046875000000 8.914062500000 8.712997436523 78 78 78
21.843750000000 8.257812500000 8.763000488281 50 50 50
21.843750000000 8.257812500000 8.841995239258 134 134 134
22.031250000000 8.351562500000 9.300994873047 125 125 125
22.343750000000 8.523437500000 10.666992187500 107 107 107
22.343750000000 8.500000000000 10.698989868164 17 17 17
21.343750000000 7.984375000000 10.792999267578 117 117 117
21.312500000000 7.968750000000 10.791992187500 86 86 86
19.390625000000 6.984375000000 7.429992675781 178 178 178
23.078125000000 9.296875000000 8.720001220703 106 106 106
21.843750000000 8.648437500000 8.764999389648 98 98 98
22.046875000000 8.757812500000 9.312988281250 138 138 138
22.390625000000 8.921875000000 10.692993164063 51 51 51
22.328125000000 8.898437500000 10.698989868164 88 88 88
21.343750000000 8.367187500000 10.805999755859 151 151 151
19.390625000000 7.359375000000 7.432998657227 164 164 164
19.390625000000 7.351562500000 7.430999755859 103 103 103
23.109375000000 9.687500000000 8.710998535156 60 60 60
23.078125000000 9.671875000000 8.738998413086 79 79 79
21.859375000000 9.046875000000 8.793991088867 76 76 76
22.078125000000 9.140625000000 9.317993164063 107 107 107
22.015625000000 9.125000000000 9.319000244141 74 74 74
22.359375000000 9.281250000000 10.698989868164 113 113 113
21.328125000000 8.742187500000 10.800003051758 155 155 155
19.375000000000 7.734375000000 7.438995361328 154 154 154
23.093750000000 10.062500000000 8.743988037109 88 88 88
23.062500000000 10.046875000000 8.759002685547 17 17 17
21.921875000000 9.429687500000 8.784988403320 31 31 31
21.890625000000 9.421875000000 8.805999755859 28 28 28
22.046875000000 9.507812500000 9.323989868164 138 138 138
22.390625000000 9.671875000000 10.711990356445 55 55 55
22.359375000000 9.656250000000 10.731002807617 98 98 98
21.328125000000 9.117187500000 10.812988281250 147 147 147
19.375000000000 8.109375000000 7.429992675781 168 168 168
23.093750000000 10.437500000000 8.761001586914 104 104 104
21.953125000000 9.812500000000 8.791000366211 53 53 53
22.078125000000 9.898437500000 9.334991455078 44 44 44
22.046875000000 9.875000000000 9.345001220703 132 132 132
22.375000000000 10.046875000000 10.720993041992 90 90 90
22.359375000000 10.015625000000 10.735000610352 47 47 47
21.359375000000 9.507812500000 10.823989868164 93 93 93
21.328125000000 9.484375000000 10.822998046875 86 86 86
19.406250000000 8.484375000000 7.437988281250 90 90 90
19.406250000000 8.476562500000 7.425003051758 167 167 167
23.093750000000 10.804687500000 8.772003173828 110 110 110
21.968750000000 10.203125000000 8.802001953125 60 60 60
22.093750000000 10.265625000000 9.347000122070 92 92 92
22.031250000000 10.250000000000 9.348999023438 93 93 93
22.375000000000 10.406250000000 10.733001708984 114 114 114
21.359375000000 9.867187500000 10.835998535156 171 171 171
19.390625000000 8.867187500000 7.436996459961 154 154 154
19.359375000000 8.851562500000 7.440994262695 129 129 129
23.093750000000 11.195312500000 8.802001953125 106 106 106
22.000000000000 10.609375000000 8.805999755859 88 88 88
22.062500000000 10.640625000000 9.349990844727 137 137 137
22.406250000000 10.804687500000 10.750991821289 28 28 28
22.375000000000 10.789062500000 10.755996704102 99 99 99
21.375000000000 10.257812500000 10.841995239258 58 58 58
21.343750000000 10.242187500000 10.843994140625 143 143 143
19.390625000000 9.234375000000 7.429992675781 149 149 149
19.359375000000 9.242187500000 7.432998657227 38 38 38
23.109375000000 11.585937500000 8.809997558594 86 86 86
22.062500000000 10.992187500000 8.813995361328 25 25 25
22.000000000000 10.984375000000 8.815994262695 41 41 41
22.093750000000 11.023437500000 9.358001708984 113 113 113
22.062500000000 11.015625000000 9.377990722656 83 83 83
22.375000000000 11.171875000000 10.761001586914 120 120 120
21.375000000000 10.640625000000 10.853988647461 162 162 162
19.390625000000 9.625000000000 7.444992065430 38 38 38
19.390625000000 9.609375000000 7.434997558594 163 163 163
23.109375000000 11.953125000000 8.824996948242 102 102 102
22.046875000000 11.390625000000 8.817001342773 100 100 100
22.046875000000 11.398437500000 9.373992919922 132 132 132
22.390625000000 11.562500000000 10.772003173828 85 85 85
22.359375000000 11.546875000000 10.777999877930 72 72 72
21.375000000000 11.023437500000 10.849990844727 124 124 124
21.343750000000 11.007812500000 10.889999389648 46 46 46
19.421875000000 9.984375000000 7.440994262695 135 135 135
19.390625000000 9.976562500000 7.423995971680 137 137 137
23.109375000000 12.335937500000 8.848999023438 100 100 100
22.078125000000 11.773437500000 8.823989868164 114 114 114
22.078125000000 11.789062500000 9.391998291016 95 95 95
22.078125000000 11.773437500000 9.394989013672 113 113 113
22.390625000000 11.945312500000 10.794998168945 119 119 119
21.359375000000 11.398437500000 10.884002685547 172 172 172
19.375000000000 10.359375000000 7.448989868164 152 152 152
19.375000000000 10.351562500000 7.446990966797 83 83 83
23.125000000000 12.710937500000 8.876998901367 102 102 102
22.109375000000 12.164062500000 8.825988769531 96 96 96
22.109375000000 12.156250000000 9.392990112305 93 93 93
22.078125000000 12.132812500000 9.401992797852 105 105 105
22.390625000000 12.304687500000 10.802001953125 119 119 119
21.359375000000 11.757812500000 10.889999389648 162 162 162
19.406250000000 10.734375000000 7.455993652344 159 159 159
19.375000000000 10.734375000000 7.431991577148 96 96 96
23.125000000000 13.078125000000 8.893997192383 102 102 102
22.140625000000 12.539062500000 8.835998535156 81 81 81
22.109375000000 12.515625000000 9.403991699219 109 109 109
22.078125000000 12.515625000000 9.412994384766 59 59 59
22.375000000000 12.664062500000 10.823989868164 114 114 114
21.390625000000 12.148437500000 10.899993896484 64 64 64
21.359375000000 12.125000000000 10.897003173828 133 133 133
19.406250000000 11.109375000000 7.446990966797 165 165 165
19.375000000000 11.093750000000 7.448989868164 83 83 83
23.156250000000 13.453125000000 8.884994506836 41 41 41
23.125000000000 13.445312500000 8.916000366211 82 82 82
22.156250000000 12.929687500000 8.847000122070 83 83 83
22.093750000000 12.875000000000 9.421997070313 138 138 138
22.406250000000 13.054687500000 10.815002441406 70 70 70
22.375000000000 13.031250000000 10.830001831055 71 71 71
21.390625000000 12.507812500000 10.905990600586 160 160 160
19.328125000000 11.421875000000 8.578002929688 79 79 79
19.390625000000 11.468750000000 7.460998535156 165 165 165
23.156250000000 13.835937500000 8.916000366211 87 87 87
22.187500000000 13.312500000000 8.856002807617 71 71 71
22.093750000000 13.273437500000 9.431991577148 105 105 105
22.093750000000 13.257812500000 9.436996459961 77 77 77
22.406250000000 13.421875000000 10.845001220703 114 114 114
21.406250000000 12.898437500000 10.929000854492 84 84 84
21.375000000000 12.867187500000 10.922988891602 132 132 132
19.328125000000 11.796875000000 8.657989501953 110 110 110
19.390625000000 11.851562500000 7.449996948242 147 147 147
23.140625000000 14.226562500000 8.945999145508 107 107 107
22.250000000000 13.718750000000 8.856994628906 22 22 22
22.218750000000 13.710937500000 8.865997314453 36 36 36
22.093750000000 13.656250000000 9.446990966797 131 131 131
22.437500000000 13.835937500000 10.850997924805 42 42 42
22.406250000000 13.804687500000 10.868988037109 83 83 83
21.406250000000 13.273437500000 10.929992675781 160 160 160
19.328125000000 12.179687500000 8.675003051758 124 124 124
19.390625000000 12.218750000000 7.442001342773 153 153 153
23.140625000000 14.593750000000 8.958999633789 112 112 112
22.234375000000 14.093750000000 8.862991333008 57 57 57
22.109375000000 14.023437500000 9.455001831055 131 131 131
22.421875000000 14.195312500000 10.864990234375 86 86 86
22.390625000000 14.171875000000 10.875000000000 54 54 54
21.406250000000 13.648437500000 10.955001831055 180 180 180
19.328125000000 12.546875000000 8.664001464844 123 123 123
19.390625000000 12.593750000000 7.448989868164 142 142 142
23.171875000000 14.960937500000 8.981994628906 84 84 84
23.140625000000 14.945312500000 9.009994506836 17 17 17
22.265625000000 14.484375000000 8.886001586914 95 95 95
22.109375000000 14.390625000000 9.472991943359 128 128 128
22.421875000000 14.554687500000 10.889999389648 69 69 69
22.390625000000 14.531250000000 10.901992797852 62 62 62
21.390625000000 14.000000000000 10.968994140625 170 170 170
19.312500000000 12.914062500000 8.687988281250 120 120 120
19.375000000000 12.960937500000 7.455993652344 138 138 138
23.156250000000 15.328125000000 9.004989624023 79 79 79
23.125000000000 15.312500000000 9.022003173828 28 28 28
22.296875000000 14.859375000000 8.878997802734 89 89 89
22.109375000000 14.750000000000 9.489990234375 122 122 122
22.421875000000 14.914062500000 10.897994995117 96 96 96
22.390625000000 14.890625000000 10.912002563477 22 22 22
21.421875000000 14.382812500000 10.988998413086 31 31 31
21.390625000000 14.359375000000 10.966995239258 149 149 149
19.343750000000 13.296875000000 8.632995605469 53 53 53
19.312500000000 13.273437500000 8.683990478516 115 115 115
23.156250000000 15.695312500000 9.019989013672 106 106 106
22.312500000000 15.250000000000 8.886001586914 75 75 75
22.140625000000 15.132812500000 9.485992431641 114 114 114
22.109375000000 15.132812500000 9.503997802734 77 77 77
22.406250000000 15.273437500000 10.914993286133 118 118 118
21.421875000000 14.757812500000 10.983993530273 134 134 134
19.343750000000 13.664062500000 8.638992309570 97 97 97
19.406250000000 13.710937500000 7.487991333008 130 130 130
23.187500000000 16.093750000000 9.058990478516 105 105 105
22.375000000000 15.671875000000 8.899993896484 22 22 22
22.125000000000 15.523437500000 9.502990722656 127 127 127
22.437500000000 15.687500000000 10.942993164063 95 95 95
22.406250000000 15.679687500000 10.944000244141 36 36 36
21.453125000000 15.148437500000 11.000000000000 98 98 98
21.390625000000 15.140625000000 11.000991821289 142 142 142
19.328125000000 14.031250000000 8.636993408203 111 111 111
23.187500000000 16.468750000000 9.085998535156 103 103 103
22.406250000000 16.054687500000 8.893997192383 43 43 43
22.156250000000 15.921875000000 9.516998291016 72 72 72
22.125000000000 15.898437500000 9.520996093750 112 112 112
22.437500000000 16.062500000000 10.947998046875 110 110 110
21.406250000000 15.523437500000 11.013000488281 132 132 132
21.375000000000 15.500000000000 11.014999389648 25 25 25
19.296875000000 14.406250000000 8.651992797852 116 116 116
23.171875000000 16.835937500000 9.097000122070 115 115 115
22.406250000000 16.414062500000 8.903991699219 66 66 66
22.156250000000 16.281250000000 9.522994995117 76 76 76
22.125000000000 16.257812500000 9.539993286133 121 121 121
22.437500000000 16.429687500000 10.968002319336 111 111 111
21.437500000000 15.882812500000 11.027999877930 125 125 125
19.328125000000 14.789062500000 8.664001464844 36 36 36
23.171875000000 17.195312500000 9.113998413086 107 107 107
22.453125000000 16.804687500000 8.920989990234 98 98 98
22.140625000000 16.625000000000 9.542999267578 61 61 61
22.109375000000 16.617187500000 9.548995971680 119 119 119
22.421875000000 16.789062500000 10.990997314453 115 115 115
21.437500000000 16.234375000000 11.037002563477 148 148 148
19.328125000000 15.148437500000 8.677001953125 48 48 48
23.171875000000 17.570312500000 9.141998291016 100 100 100
22.453125000000 17.187500000000 8.920989990234 87 87 87
22.140625000000 17.007812500000 9.560989379883 95 95 95
22.109375000000 16.992187500000 9.580001831055 92 92 92
22.421875000000 17.156250000000 11.015991210938 102 102 102
21.421875000000 16.609375000000 11.069992065430 163 163 163
23.187500000000 17.953125000000 9.166000366211 105 105 105
22.484375000000 17.593750000000 8.932998657227 45 45 45
22.140625000000 17.390625000000 9.582992553711 132 132 132
22.453125000000 17.562500000000 11.024993896484 102 102 102
22.421875000000 17.531250000000 11.028991699219 15 15 15
21.453125000000 16.992187500000 11.062988281250 176 176 176
21.390625000000 16.976562500000 11.076995849609 47 47 47
23.156250000000 18.335937500000 9.198989868164 76 76 76
22.531250000000 18.000000000000 8.940002441406 89 89 89
22.171875000000 17.781250000000 9.582000732422 98 98 98
22.140625000000 17.765625000000 9.606994628906 85 85 85
22.437500000000 17.929687500000 11.054992675781 97 97 97
21.453125000000 17.398437500000 11.084991455078 15 15 15
21.421875000000 17.375000000000 11.082992553711 146 146 146
23.218750000000 18.718750000000 9.209991455078 57 57 57
23.187500000000 18.703125000000 9.233001708984 43 43 43
22.562500000000 18.382812500000 8.945999145508 83 83 83
22.156250000000 18.140625000000 9.606994628906 121 121 121
22.468750000000 18.312500000000 11.048995971680 93 93 93
22.437500000000 18.289062500000 11.074996948242 23 23 23
21.453125000000 17.765625000000 11.093994140625 133 133 133
21.421875000000 17.742187500000 11.113998413086 29 29 29
23.187500000000 19.062500000000 9.250000000000 81 81 81
22.593750000000 18.757812500000 8.948989868164 77 77 77
22.156250000000 18.507812500000 9.616989135742 129 129 129
22.468750000000 18.679687500000 11.078002929688 99 99 99
22.437500000000 18.648437500000 11.100997924805 13 13 13
21.437500000000 18.125000000000 11.111999511719 160 160 160
23.171875000000 19.437500000000 9.263992309570 98 98 98
22.625000000000 19.140625000000 8.949996948242 48 48 48
22.156250000000 18.875000000000 9.647003173828 133 133 133
22.468750000000 19.039062500000 11.093002319336 118 118 118
21.437500000000 18.484375000000 11.134994506836 165 165 165
23.171875000000 19.820312500000 9.297988891602 79 79 79
22.640625000000 19.531250000000 8.955001831055 83 83 83
22.171875000000 19.273437500000 9.662002563477 92 92 92
22.140625000000 19.250000000000 9.654998779297 100 100 100
22.453125000000 19.414062500000 11.123001098633 95 95 95
21.468750000000 18.875000000000 11.151000976563 100 100 100
21.437500000000 18.867187500000 11.169998168945 64 64 64
23.234375000000 20.210937500000 9.315002441406 98 98 98
22.671875000000 19.921875000000 8.973999023438 73 73 73
22.171875000000 19.648437500000 9.664993286133 127 127 127
22.484375000000 19.804687500000 11.136001586914 115 115 115
21.484375000000 19.273437500000 11.159988403320 87 87 87
21.421875000000 19.250000000000 11.168991088867 149 149 149
23.187500000000 20.585937500000 9.347991943359 106 106 106
22.734375000000 20.328125000000 8.983001708984 16 16 16
22.203125000000 20.031250000000 9.683990478516 110 110 110
22.140625000000 20.031250000000 9.703002929688 85 85 85
22.484375000000 20.195312500000 11.147994995117 22 22 22
22.484375000000 20.171875000000 11.162994384766 81 81 81
21.453125000000 19.632812500000 11.179992675781 135 135 135
23.218750000000 20.968750000000 9.376998901367 112 112 112
22.750000000000 20.718750000000 8.991989135742 31 31 31
22.171875000000 20.406250000000 9.705993652344 123 123 123
22.500000000000 20.562500000000 11.171997070313 91 91 91
22.437500000000 20.546875000000 11.197998046875 16 16 16
21.453125000000 20.007812500000 11.196990966797 139 139 139
23.218750000000 21.343750000000 9.407989501953 110 110 110
22.781250000000 21.117187500000 9.000991821289 24 24 24
22.187500000000 20.773437500000 9.725997924805 130 130 130
22.500000000000 20.937500000000 11.196990966797 124 124 124
21.484375000000 20.398437500000 11.216995239258 130 130 130
21.453125000000 20.375000000000 11.222000122070 80 80 80
23.250000000000 21.718750000000 9.436996459961 105 105 105
22.812500000000 21.484375000000 9.017990112305 40 40 40
22.156250000000 21.156250000000 9.746002197266 126 126 126
22.500000000000 21.304687500000 11.216995239258 111 111 111
21.468750000000 20.765625000000 11.227996826172 126 126 126
23.234375000000 22.085937500000 9.463989257813 115 115 115
22.828125000000 21.882812500000 9.003997802734 19 19 19
22.218750000000 21.523437500000 9.746002197266 104 104 104
22.187500000000 21.515625000000 9.765991210938 77 77 77
22.531250000000 21.695312500000 11.244995117188 35 35 35
22.500000000000 21.679687500000 11.255996704102 77 77 77
21.468750000000 21.140625000000 11.253997802734 175 175 175
23.203125000000 22.460937500000 9.476989746094 70 70 70
22.859375000000 22.265625000000 9.000991821289 125 125 125
22.859375000000 22.257812500000 9.033996582031 69 69 69
22.171875000000 21.898437500000 9.767990112305 125 125 125
22.484375000000 22.062500000000 11.250000000000 120 120 120
21.500000000000 21.515625000000 11.267990112305 137 137 137
22.921875000000 22.679687500000 8.832992553711 29 29 29
22.890625000000 22.648437500000 8.838989257813 167 167 167
22.859375000000 22.656250000000 8.869995117188 89 89 89
22.890625000000 22.648437500000 8.955001831055 117 117 117
22.890625000000 22.664062500000 9.034988403320 135 135 135
22.859375000000 22.640625000000 9.022994995117 136 136 136
22.859375000000 22.632812500000 9.056991577148 34 34 34
22.890625000000 22.656250000000 9.205993652344 115 115 115
22.890625000000 22.648437500000 9.250991821289 51 51 51
22.203125000000 22.296875000000 9.784988403320 88 88 88
22.171875000000 22.273437500000 9.784988403320 92 92 92
22.546875000000 22.453125000000 11.294998168945 23 23 23
22.484375000000 22.437500000000 11.293991088867 82 82 82
21.515625000000 21.906250000000 11.285995483398 40 40 40
21.453125000000 21.890625000000 11.280990600586 147 147 147
22.890625000000 23.039062500000 8.819992065430 107 107 107
22.921875000000 23.046875000000 9.037002563477 121 121 121
22.921875000000 23.054687500000 9.070999145508 62 62 62
22.953125000000 23.062500000000 9.248001098633 70 70 70
22.203125000000 22.664062500000 9.805999755859 107 107 107
22.171875000000 22.656250000000 9.809997558594 71 71 71
22.515625000000 22.828125000000 11.289993286133 64 64 64
22.484375000000 22.812500000000 11.302001953125 63 63 63
21.484375000000 22.281250000000 11.305999755859 90 90 90
21.453125000000 22.265625000000 11.315002441406 75 75 75
22.906250000000 23.429687500000 8.815002441406 79 79 79
22.937500000000 23.429687500000 9.080993652344 112 112 112
23.218750000000 23.601562500000 9.578002929688 103 103 103
22.937500000000 23.429687500000 9.250991821289 81 81 81
22.203125000000 23.039062500000 9.815002441406 98 98 98
22.171875000000 23.015625000000 9.832000732422 59 59 59
22.531250000000 23.203125000000 11.324996948242 57 57 57
22.468750000000 23.179687500000 11.350997924805 40 40 40
21.515625000000 22.648437500000 11.322998046875 115 115 115
21.453125000000 22.625000000000 11.325988769531 48 48 48
22.968750000000 23.820312500000 8.781997680664 91 91 91
22.937500000000 23.796875000000 8.805999755859 22 22 22
22.968750000000 23.820312500000 9.123992919922 58 58 58
23.250000000000 23.960937500000 9.595993041992 106 106 106
22.968750000000 23.835937500000 9.263000488281 104 104 104
22.187500000000 23.406250000000 9.841995239258 122 122 122
22.187500000000 23.382812500000 9.856994628906 22 22 22
22.531250000000 23.554687500000 11.337997436523 86 86 86
21.515625000000 23.007812500000 11.335998535156 138 138 138
22.968750000000 24.195312500000 8.774993896484 117 117 117
23.031250000000 24.210937500000 8.873001098633 104 104 104
23.000000000000 24.210937500000 8.908996582031 129 129 129
23.000000000000 24.203125000000 8.946990966797 110 110 110
23.000000000000 24.210937500000 9.011993408203 111 111 111
23.000000000000 24.203125000000 9.063995361328 73 73 73
23.031250000000 24.203125000000 9.152999877930 102 102 102
23.031250000000 24.210937500000 9.297988891602 111 111 111
22.218750000000 23.765625000000 9.858001708984 118 118 118
22.500000000000 23.929687500000 11.367996215820 106 106 106
21.531250000000 23.390625000000 11.356002807617 72 72 72
21.468750000000 23.375000000000 11.356994628906 162 162 162
23.015625000000 24.601562500000 8.865997314453 43 43 43
23.015625000000 24.585937500000 8.895996093750 106 106 106
23.015625000000 24.593750000000 8.964996337891 120 120 120
22.984375000000 24.585937500000 8.989990234375 134 134 134
22.984375000000 24.578125000000 9.034988403320 114 114 114
23.046875000000 24.609375000000 9.261001586914 44 44 44
22.250000000000 24.156250000000 9.876998901367 87 87 87
22.187500000000 24.148437500000 9.884994506836 80 80 80
22.562500000000 24.320312500000 11.386001586914 55 55 55
22.500000000000 24.296875000000 11.394989013672 45 45 45
21.500000000000 23.765625000000 11.382995605469 145 145 145
22.203125000000 24.546875000000 9.901992797852 120 120 120
21.531250000000 24.164062500000 11.391998291016 16 16 16
21.500000000000 24.148437500000 11.395996093750 153 153 153
21.515625000000 24.531250000000 11.420989990234 91 91 91
21.484375000000 24.515625000000 11.427001953125 93 93 93
19.343750000000 0.195312500000 8.477996826172 117 117 117
19.406250000000 0.179687500000 7.414001464844 252 252 252
19.406250000000 0.164062500000 7.416000366211 161 161 161
19.343750000000 0.578125000000 8.412002563477 93 93 93
19.406250000000 0.562500000000 7.429992675781 252 252 252
19.406250000000 0.546875000000 7.399993896484 252 252 252
19.390625000000 0.937500000000 7.470993041992 253 253 253
19.390625000000 0.937500000000 7.406997680664 252 252 252
19.421875000000 0.921875000000 7.419998168945 75 75 75
19.328125000000 1.328125000000 8.472000122070 111 111 111
19.390625000000 1.312500000000 7.427001953125 252 252 252
19.390625000000 1.304687500000 7.429992675781 138 138 138
21.218750000000 0.156250000000 10.672988891602 139 139 139
21.250000000000 0.132812500000 10.670989990234 51 51 51
21.187500000000 0.210937500000 8.656997680664 69 69 69
21.218750000000 0.195312500000 8.642990112305 50 50 50
19.328125000000 1.718750000000 8.429000854492 75 75 75
19.390625000000 1.695312500000 7.472000122070 253 253 253
19.421875000000 1.679687500000 7.402999877930 252 252 252
21.250000000000 0.523437500000 10.670989990234 158 158 158
21.250000000000 0.570312500000 8.649993896484 93 93 93
21.937500000000 0.148437500000 9.187988281250 125 125 125
21.968750000000 0.125000000000 9.177993774414 59 59 59
19.390625000000 2.085937500000 7.453002929688 243 243 243
19.421875000000 2.062500000000 7.412002563477 246 246 246
21.234375000000 0.906250000000 10.680999755859 153 153 153
21.265625000000 0.898437500000 10.669998168945 53 53 53
21.265625000000 0.929687500000 8.668991088867 104 104 104
22.250000000000 0.304687500000 10.537994384766 117 117 117
21.968750000000 0.515625000000 9.187988281250 139 139 139
19.375000000000 2.460937500000 7.409988403320 176 176 176
19.406250000000 2.453125000000 7.414993286133 234 234 234
21.234375000000 1.281250000000 10.697998046875 59 59 59
21.265625000000 1.273437500000 10.679992675781 146 146 146
21.296875000000 1.296875000000 8.675003051758 85 85 85
22.250000000000 0.687500000000 10.546997070313 54 54 54
22.281250000000 0.671875000000 10.532989501953 102 102 102
21.921875000000 0.898437500000 9.187988281250 129 129 129
22.968750000000 0.289062500000 8.509002685547 113 113 113
19.375000000000 2.835937500000 7.462997436523 178 178 178
19.406250000000 2.828125000000 7.414993286133 214 214 214
19.406250000000 2.820312500000 7.436996459961 58 58 58
21.265625000000 1.648437500000 10.687988281250 159 159 159
21.296875000000 1.664062500000 8.675994873047 60 60 60
21.328125000000 1.640625000000 8.664001464844 59 59 59
22.234375000000 1.054687500000 10.534988403320 135 135 135
21.921875000000 1.273437500000 9.198989868164 64 64 64
21.953125000000 1.250000000000 9.194992065430 125 125 125
23.000000000000 0.640625000000 8.504989624023 112 112 112
19.406250000000 3.210937500000 7.458999633789 252 252 252
19.406250000000 3.203125000000 7.431991577148 130 130 130
21.234375000000 2.039062500000 10.705993652344 20 20 20
21.265625000000 2.023437500000 10.682998657227 157 157 157
21.359375000000 2.015625000000 8.675003051758 114 114 114
22.234375000000 1.445312500000 10.541992187500 36 36 36
22.265625000000 1.429687500000 10.537002563477 108 108 108
21.953125000000 1.640625000000 9.211990356445 139 139 139
21.984375000000 1.625000000000 9.183990478516 22 22 22
22.984375000000 1.031250000000 8.513992309570 113 113 113
19.390625000000 3.593750000000 7.412002563477 190 190 190
19.390625000000 3.578125000000 7.412002563477 217 217 217
21.250000000000 2.414062500000 10.687988281250 134 134 134
21.281250000000 2.390625000000 10.683990478516 65 65 65
21.375000000000 2.382812500000 8.688995361328 97 97 97
22.265625000000 1.812500000000 10.555999755859 125 125 125
21.953125000000 2.015625000000 9.195999145508 140 140 140
22.984375000000 1.421875000000 8.498001098633 114 114 114
19.390625000000 3.968750000000 7.434997558594 155 155 155
19.390625000000 3.960937500000 7.414993286133 208 208 208
21.281250000000 2.781250000000 10.688995361328 156 156 156
21.375000000000 2.757812500000 8.683990478516 71 71 71
21.406250000000 2.757812500000 8.656997680664 40 40 40
22.218750000000 2.203125000000 10.552001953125 40 40 40
22.265625000000 2.179687500000 10.539993286133 107 107 107
21.968750000000 2.398437500000 9.215988159180 131 131 131
21.968750000000 2.398437500000 9.187988281250 42 42 42
22.984375000000 1.804687500000 8.515991210938 118 118 118
19.359375000000 4.367187500000 7.477996826172 147 147 147
19.390625000000 4.343750000000 7.420989990234 204 204 204
21.281250000000 3.171875000000 10.711990356445 149 149 149
21.312500000000 3.148437500000 10.711990356445 14 14 14
21.406250000000 3.109375000000 8.700988769531 53 53 53
21.437500000000 3.101562500000 8.679992675781 83 83 83
22.281250000000 2.554687500000 10.554992675781 136 136 136
21.968750000000 2.789062500000 9.227996826172 74 74 74
22.000000000000 2.765625000000 9.210998535156 126 126 126
22.984375000000 2.171875000000 8.533996582031 91 91 91
23.015625000000 2.156250000000 8.522994995117 34 34 34
19.390625000000 4.726562500000 7.502990722656 112 112 112
19.390625000000 4.726562500000 7.423995971680 205 205 205
19.421875000000 4.710937500000 7.436996459961 61 61 61
21.265625000000 3.539062500000 10.709991455078 72 72 72
21.296875000000 3.531250000000 10.698989868164 119 119 119
21.468750000000 3.468750000000 8.690002441406 94 94 94
22.312500000000 2.921875000000 10.550003051758 30 30 30
21.968750000000 3.140625000000 9.216995239258 144 144 144
23.000000000000 2.531250000000 8.519989013672 117 117 117
22.281250000000 2.921875000000 10.610992431641 106 106 106
19.375000000000 5.109375000000 7.433990478516 205 205 205
19.406250000000 5.101562500000 7.438995361328 121 121 121
21.265625000000 3.914062500000 10.713989257813 153 153 153
21.484375000000 3.828125000000 8.746002197266 194 194 194
21.953125000000 3.523437500000 9.233993530273 89 89 89
21.984375000000 3.515625000000 9.205993652344 102 102 102
23.000000000000 2.921875000000 8.534988403320 125 125 125
19.375000000000 5.492187500000 7.431991577148 154 154 154
19.406250000000 5.484375000000 7.427001953125 203 203 203
21.265625000000 4.312500000000 10.722000122070 64 64 64
21.296875000000 4.304687500000 10.707000732422 145 145 145
22.265625000000 3.703125000000 10.586990356445 95 95 95
22.328125000000 3.671875000000 10.617996215820 58 58 58
21.515625000000 4.187500000000 8.686996459961 42 42 42
21.984375000000 3.914062500000 9.222991943359 143 143 143
23.000000000000 3.304687500000 8.537002563477 106 106 106
19.375000000000 5.875000000000 7.451995849609 101 101 101
19.406250000000 5.859375000000 7.425994873047 203 203 203
21.296875000000 4.679687500000 10.729995727539 148 148 148
21.328125000000 4.656250000000 10.735992431641 26 26 26
22.296875000000 4.070312500000 10.582992553711 133 133 133
21.546875000000 4.570312500000 8.698989868164 95 95 95
21.984375000000 4.296875000000 9.244995117188 69 69 69
21.984375000000 4.273437500000 9.220001220703 127 127 127
23.015625000000 3.679687500000 8.563995361328 130 130 130
19.390625000000 6.242187500000 7.434997558594 208 208 208
19.390625000000 6.234375000000 7.444000244141 89 89 89
21.281250000000 5.054687500000 10.752990722656 65 65 65
21.312500000000 5.039062500000 10.722000122070 146 146 146
22.296875000000 4.453125000000 10.601989746094 107 107 107
22.296875000000 4.445312500000 10.565002441406 38 38 38
21.562500000000 4.921875000000 8.722000122070 110 110 110
22.015625000000 4.656250000000 9.239990234375 146 146 146
23.015625000000 4.054687500000 8.584991455078 93 93 93
23.015625000000 4.054687500000 8.557998657227 28 28 28
19.390625000000 6.625000000000 7.433990478516 207 207 207
19.390625000000 6.617187500000 7.445999145508 114 114 114
21.312500000000 5.421875000000 10.740997314453 153 153 153
22.281250000000 4.828125000000 10.613998413086 16 16 16
22.281250000000 4.820312500000 10.576995849609 115 115 115
21.593750000000 5.289062500000 8.722991943359 117 117 117
22.000000000000 5.039062500000 9.241989135742 111 111 111
22.000000000000 5.031250000000 9.227996826172 75 75 75
23.015625000000 4.429687500000 8.569000244141 111 111 111
19.390625000000 7.007812500000 7.425994873047 193 193 193
19.421875000000 7.000000000000 7.425994873047 179 179 179
21.312500000000 5.820312500000 10.741989135742 107 107 107
21.312500000000 5.796875000000 10.727996826172 93 93 93
22.281250000000 5.203125000000 10.601989746094 131 131 131
21.625000000000 5.656250000000 8.727996826172 89 89 89
22.000000000000 5.414062500000 9.239990234375 138 138 138
23.000000000000 4.804687500000 8.585998535156 132 132 132
19.375000000000 7.398437500000 7.438995361328 131 131 131
19.406250000000 7.382812500000 7.419998168945 205 205 205
21.296875000000 6.195312500000 10.744995117188 163 163 163
22.281250000000 5.601562500000 10.615997314453 29 29 29
22.312500000000 5.578125000000 10.597991943359 125 125 125
21.656250000000 6.023437500000 8.741989135742 20 20 20
21.656250000000 6.023437500000 8.718002319336 79 79 79
22.000000000000 5.789062500000 9.256988525391 128 128 128
22.031250000000 5.789062500000 9.235992431641 55 55 55
23.031250000000 5.195312500000 8.601989746094 46 46 46
23.031250000000 5.179687500000 8.578994750977 83 83 83
19.406250000000 7.765625000000 7.427001953125 175 175 175
19.406250000000 7.757812500000 7.444000244141 69 69 69
21.296875000000 6.585937500000 10.767990112305 95 95 95
21.328125000000 6.546875000000 10.741989135742 130 130 130
22.312500000000 5.968750000000 10.615997314453 125 125 125
22.343750000000 5.953125000000 10.599990844727 15 15 15
21.671875000000 6.375000000000 8.736999511719 111 111 111
22.015625000000 6.164062500000 9.263992309570 147 147 147
23.031250000000 5.570312500000 8.591995239258 129 129 129
19.406250000000 8.148437500000 7.418991088867 171 171 171
19.406250000000 8.132812500000 7.427001953125 196 196 196
21.328125000000 6.945312500000 10.766998291016 147 147 147
22.328125000000 6.328125000000 10.623992919922 125 125 125
21.671875000000 6.773437500000 8.731994628906 76 76 76
21.671875000000 6.757812500000 8.720993041992 168 168 168
21.703125000000 6.734375000000 8.716995239258 65 65 65
22.015625000000 6.546875000000 9.278991699219 118 118 118
22.046875000000 6.531250000000 9.272003173828 76 76 76
23.031250000000 5.953125000000 8.616989135742 80 80 80
23.062500000000 5.937500000000 8.601989746094 65 65 65
19.406250000000 8.523437500000 7.431991577148 128 128 128
19.406250000000 8.515625000000 7.423995971680 198 198 198
21.328125000000 7.320312500000 10.787002563477 80 80 80
21.359375000000 7.304687500000 10.764999389648 128 128 128
22.296875000000 6.718750000000 10.639999389648 135 135 135
21.671875000000 7.132812500000 8.759002685547 87 87 87
21.703125000000 7.109375000000 8.731002807617 163 163 163
21.734375000000 7.109375000000 8.715988159180 163 163 163
21.796875000000 7.070312500000 8.751998901367 135 135 135
23.046875000000 6.320312500000 8.610992431641 118 118 118
19.390625000000 8.906250000000 7.429000854492 75 75 75
19.390625000000 8.898437500000 7.430999755859 181 181 181
21.312500000000 7.703125000000 10.772003173828 166 166 166
22.328125000000 7.093750000000 10.653991699219 81 81 81
22.359375000000 7.085937500000 10.642990112305 97 97 97
21.718750000000 7.484375000000 8.739990234375 145 145 145
21.750000000000 7.468750000000 8.746994018555 149 149 149
23.046875000000 6.695312500000 8.636001586914 124 124 124
19.390625000000 9.281250000000 7.429000854492 164 164 164
21.312500000000 8.085937500000 10.787994384766 132 132 132
21.343750000000 8.070312500000 10.774002075195 56 56 56
22.343750000000 7.468750000000 10.657989501953 136 136 136
22.000000000000 7.695312500000 9.281997680664 74 74 74
21.812500000000 7.820312500000 8.783996582031 150 150 150
23.046875000000 7.078125000000 8.668991088867 75 75 75
23.078125000000 7.062500000000 8.636001586914 60 60 60
19.390625000000 9.671875000000 7.433990478516 169 169 169
19.421875000000 9.656250000000 7.448989868164 128 128 128
21.343750000000 8.453125000000 10.793991088867 146 146 146
22.312500000000 7.859375000000 10.675003051758 81 81 81
22.343750000000 7.843750000000 10.651000976563 74 74 74
22.031250000000 8.070312500000 9.300994873047 147 147 147
21.812500000000 8.203125000000 8.767990112305 112 112 112
23.062500000000 7.453125000000 8.652999877930 125 125 125
19.375000000000 10.062500000000 7.442993164063 92 92 92
19.406250000000 10.039062500000 7.434997558594 173 173 173
21.328125000000 8.843750000000 10.815994262695 93 93 93
21.359375000000 8.828125000000 10.802993774414 109 109 109
22.343750000000 8.218750000000 10.677001953125 143 143 143
22.031250000000 8.453125000000 9.304992675781 78 78 78
22.062500000000 8.437500000000 9.284988403320 129 129 129
21.843750000000 8.570312500000 8.768997192383 61 61 61
21.875000000000 8.554687500000 8.757995605469 51 51 51
23.062500000000 7.835937500000 8.672988891602 106 106 106
19.406250000000 10.414062500000 7.431991577148 161 161 161
21.328125000000 9.210937500000 10.817001342773 154 154 154
22.343750000000 8.617187500000 10.694992065430 90 90 90
22.375000000000 8.593750000000 10.673995971680 83 83 83
22.015625000000 8.812500000000 9.319992065430 148 148 148
21.859375000000 8.937500000000 8.765991210938 88 88 88
23.031250000000 8.226562500000 8.690002441406 41 41 41
23.062500000000 8.210937500000 8.670989990234 92 92 92
19.406250000000 10.796875000000 7.436996459961 156 156 156
19.406250000000 10.804687500000 7.522994995117 121 121 121
21.328125000000 9.593750000000 10.828002929688 133 133 133
21.359375000000 9.585937500000 10.825988769531 52 52 52
22.359375000000 8.976562500000 10.694992065430 125 125 125
22.046875000000 9.203125000000 9.328002929688 117 117 117
22.078125000000 9.187500000000 9.312988281250 72 72 72
21.890625000000 9.296875000000 8.779998779297 85 85 85
23.062500000000 8.593750000000 8.686996459961 122 122 122
19.406250000000 11.187500000000 7.434997558594 158 158 158
21.359375000000 9.976562500000 10.841995239258 83 83 83
21.390625000000 9.968750000000 10.837997436523 125 125 125
22.359375000000 9.359375000000 10.703002929688 137 137 137
22.046875000000 9.585937500000 9.339996337891 83 83 83
22.046875000000 9.578125000000 9.319992065430 122 122 122
21.921875000000 9.648437500000 8.796997070313 84 84 84
23.078125000000 8.960937500000 8.712997436523 134 134 134
19.390625000000 11.562500000000 7.451995849609 154 154 154
19.328125000000 11.593750000000 8.651000976563 111 111 111
21.343750000000 10.343750000000 10.849990844727 155 155 155
22.359375000000 9.750000000000 10.737991333008 123 123 123
22.390625000000 9.726562500000 10.710998535156 20 20 20
22.046875000000 9.937500000000 9.332000732422 144 144 144
21.953125000000 10.015625000000 8.804000854492 83 83 83
23.078125000000 9.328125000000 8.731002807617 128 128 128
19.390625000000 11.945312500000 7.442001342773 154 154 154
19.390625000000 11.929687500000 7.465988159180 175 175 175
21.343750000000 10.718750000000 10.856994628906 123 123 123
21.406250000000 10.695312500000 10.868988037109 65 65 65
22.343750000000 10.117187500000 10.764999389648 45 45 45
22.375000000000 10.101562500000 10.731002807617 116 116 116
22.062500000000 10.320312500000 9.362991333008 138 138 138
22.062500000000 10.304687500000 9.345001220703 29 29 29
21.968750000000 10.382812500000 8.796997070313 91 91 91
23.078125000000 9.710937500000 8.746002197266 107 107 107
23.109375000000 9.703125000000 8.720001220703 18 18 18
19.390625000000 12.328125000000 7.450988769531 110 110 110
19.421875000000 12.320312500000 7.442993164063 158 158 158
19.359375000000 12.343750000000 8.598999023438 110 110 110
21.375000000000 11.093750000000 10.864990234375 164 164 164
22.343750000000 10.500000000000 10.739990234375 142 142 142
22.031250000000 10.718750000000 9.368988037109 69 69 69
22.062500000000 10.695312500000 9.351989746094 131 131 131
22.000000000000 10.757812500000 8.804000854492 107 107 107
23.062500000000 10.109375000000 8.761993408203 52 52 52
23.093750000000 10.085937500000 8.746994018555 90 90 90
19.375000000000 12.710937500000 7.453002929688 70 70 70
19.406250000000 12.703125000000 7.455001831055 155 155 155
19.343750000000 12.734375000000 8.623001098633 138 138 138
21.359375000000 11.476562500000 10.881988525391 135 135 135
21.390625000000 11.460937500000 10.889999389648 16 16 16
22.343750000000 10.898437500000 10.759994506836 104 104 104
22.375000000000 10.867187500000 10.746994018555 80 80 80
22.062500000000 11.085937500000 9.364990234375 149 149 149
22.031250000000 11.132812500000 8.810989379883 90 90 90
23.093750000000 10.476562500000 8.761993408203 117 117 117
19.375000000000 13.093750000000 7.449996948242 55 55 55
19.406250000000 13.085937500000 7.463989257813 149 149 149
19.343750000000 13.109375000000 8.632995605469 132 132 132
21.359375000000 11.875000000000 10.886001586914 104 104 104
21.390625000000 11.851562500000 10.893997192383 111 111 111
22.375000000000 11.265625000000 10.785995483398 31 31 31
22.375000000000 11.250000000000 10.763000488281 122 122 122
22.046875000000 11.460937500000 9.378997802734 143 143 143
22.078125000000 11.445312500000 9.371994018555 16 16 16
22.046875000000 11.484375000000 8.824996948242 103 103 103
23.093750000000 10.851562500000 8.781997680664 122 122 122
19.375000000000 13.468750000000 7.451995849609 102 102 102
19.406250000000 13.468750000000 7.472991943359 155 155 155
19.343750000000 13.476562500000 8.627990722656 131 131 131
21.359375000000 12.242187500000 10.903991699219 104 104 104
21.390625000000 12.218750000000 10.901992797852 120 120 120
22.359375000000 11.640625000000 10.792999267578 29 29 29
22.390625000000 11.617187500000 10.780990600586 129 129 129
22.078125000000 11.835937500000 9.397003173828 146 146 146
22.078125000000 11.835937500000 8.822998046875 114 114 114
23.125000000000 11.226562500000 8.800994873047 107 107 107
19.406250000000 13.843750000000 7.458999633789 80 80 80
19.406250000000 13.835937500000 7.464996337891 147 147 147
19.343750000000 13.859375000000 8.643997192383 125 125 125
21.390625000000 12.601562500000 10.912994384766 151 151 151
22.390625000000 12.000000000000 10.787002563477 139 139 139
22.078125000000 12.218750000000 9.408996582031 121 121 121
22.109375000000 12.203125000000 9.393997192383 67 67 67
22.109375000000 12.195312500000 8.837997436523 97 97 97
23.109375000000 11.609375000000 8.819992065430 110 110 110
19.390625000000 14.218750000000 7.464996337891 136 136 136
19.328125000000 14.257812500000 8.668991088867 124 124 124
21.375000000000 12.992187500000 10.933990478516 125 125 125
21.406250000000 12.976562500000 10.921997070313 46 46 46
22.390625000000 12.375000000000 10.823989868164 114 114 114
22.421875000000 12.359375000000 10.800003051758 50 50 50
22.078125000000 12.601562500000 9.423995971680 27 27 27
22.109375000000 12.585937500000 9.414993286133 135 135 135
22.140625000000 12.578125000000 8.830993652344 104 104 104
23.109375000000 11.984375000000 8.832992553711 123 123 123
19.390625000000 14.617187500000 7.466995239258 142 142 142
19.390625000000 14.601562500000 7.530990600586 171 171 171
19.359375000000 14.625000000000 8.604995727539 135 135 135
21.406250000000 13.367187500000 10.930999755859 150 150 150
22.406250000000 12.750000000000 10.817993164063 147 147 147
22.093750000000 12.976562500000 9.429992675781 150 150 150
22.156250000000 12.937500000000 8.851989746094 91 91 91
23.109375000000 12.375000000000 8.860992431641 112 112 112
19.390625000000 14.992187500000 7.462997436523 145 145 145
19.421875000000 14.976562500000 7.472000122070 147 147 147
19.328125000000 15.007812500000 8.679000854492 130 130 130
21.406250000000 13.742187500000 10.944000244141 167 167 167
22.406250000000 13.140625000000 10.841995239258 151 151 151
22.093750000000 13.359375000000 9.447998046875 119 119 119
22.093750000000 13.343750000000 9.417999267578 62 62 62
22.187500000000 13.304687500000 8.856002807617 100 100 100
23.125000000000 12.750000000000 8.888000488281 105 105 105
19.375000000000 15.359375000000 7.461990356445 138 138 138
19.406250000000 15.351562500000 7.468994140625 142 142 142
19.312500000000 15.390625000000 8.686996459961 127 127 127
21.390625000000 14.125000000000 10.964996337891 147 147 147
22.406250000000 13.523437500000 10.858001708984 148 148 148
22.093750000000 13.726562500000 9.455001831055 118 118 118
22.093750000000 13.718750000000 9.435989379883 74 74 74
22.218750000000 13.664062500000 8.853988647461 95 95 95
23.125000000000 13.117187500000 8.912002563477 116 116 116
19.406250000000 15.734375000000 7.470001220703 129 129 129
19.312500000000 15.773437500000 8.695999145508 124 124 124
21.390625000000 14.492187500000 10.987991333008 133 133 133
21.421875000000 14.476562500000 10.981994628906 65 65 65
22.406250000000 13.882812500000 10.866989135742 138 138 138
22.437500000000 13.882812500000 10.867996215820 22 22 22
22.078125000000 14.101562500000 9.463989257813 100 100 100
22.109375000000 14.085937500000 9.446990966797 110 110 110
22.234375000000 14.015625000000 8.860992431641 87 87 87
23.125000000000 13.484375000000 8.922988891602 123 123 123
19.406250000000 16.117187500000 7.457000732422 131 131 131
19.343750000000 16.156250000000 8.701995849609 120 120 120
21.390625000000 14.882812500000 11.011993408203 22 22 22
21.421875000000 14.867187500000 10.981994628906 137 137 137
22.390625000000 14.281250000000 10.893997192383 74 74 74
22.421875000000 14.257812500000 10.875000000000 118 118 118
22.109375000000 14.468750000000 9.468002319336 147 147 147
22.265625000000 14.382812500000 8.867996215820 93 93 93
23.125000000000 13.867187500000 8.953002929688 92 92 92
23.156250000000 13.851562500000 8.916000366211 33 33 33
19.296875000000 16.546875000000 8.755996704102 85 85 85
19.343750000000 16.531250000000 8.720001220703 119 119 119
21.406250000000 15.250000000000 11.006988525391 140 140 140
21.453125000000 15.234375000000 11.006988525391 20 20 20
22.421875000000 14.648437500000 10.895996093750 147 147 147
22.078125000000 14.867187500000 9.490997314453 134 134 134
22.140625000000 14.851562500000 9.474990844727 39 39 39
22.296875000000 14.750000000000 8.876998901367 90 90 90
23.109375000000 14.265625000000 8.968002319336 50 50 50
23.140625000000 14.242187500000 8.942001342773 91 91 91
19.390625000000 16.875000000000 7.458999633789 120 120 120
19.328125000000 16.906250000000 8.736999511719 109 109 109
21.375000000000 15.640625000000 11.027999877930 33 33 33
21.406250000000 15.625000000000 11.001998901367 151 151 151
22.390625000000 15.039062500000 10.917999267578 92 92 92
22.453125000000 15.015625000000 10.907989501953 104 104 104
22.093750000000 15.250000000000 9.507995605469 70 70 70
22.140625000000 15.234375000000 9.487991333008 139 139 139
22.328125000000 15.117187500000 8.899002075195 77 77 77
23.140625000000 14.625000000000 8.970993041992 110 110 110
19.296875000000 17.296875000000 8.735992431641 119 119 119
19.328125000000 17.273437500000 8.741989135742 45 45 45
21.406250000000 16.000000000000 11.029998779297 152 152 152
22.406250000000 15.382812500000 10.922988891602 138 138 138
22.093750000000 15.609375000000 9.509994506836 145 145 145
22.343750000000 15.476562500000 8.901992797852 77 77 77
23.140625000000 15.000000000000 8.994995117188 116 116 116
19.328125000000 17.671875000000 8.753997802734 111 111 111
19.328125000000 17.656250000000 8.754989624023 102 102 102
21.406250000000 16.375000000000 11.060989379883 124 124 124
21.437500000000 16.351562500000 11.032989501953 54 54 54
22.406250000000 15.773437500000 10.938995361328 156 156 156
22.093750000000 15.984375000000 9.518997192383 156 156 156
22.375000000000 15.835937500000 8.901000976563 70 70 70
23.125000000000 15.367187500000 9.009002685547 119 119 119
19.312500000000 18.039062500000 8.770996093750 120 120 120
21.390625000000 16.765625000000 11.083999633789 28 28 28
21.421875000000 16.750000000000 11.052001953125 157 157 157
22.406250000000 16.148437500000 10.968002319336 142 142 142
22.437500000000 16.140625000000 10.946990966797 32 32 32
22.125000000000 16.359375000000 9.547988891602 123 123 123
22.156250000000 16.335937500000 9.533996582031 98 98 98
22.406250000000 16.195312500000 8.914001464844 65 65 65
23.156250000000 15.750000000000 9.043991088867 125 125 125
19.312500000000 18.429687500000 8.766998291016 114 114 114
21.421875000000 17.140625000000 11.073989868164 151 151 151
21.453125000000 17.117187500000 11.065002441406 17 17 17
22.406250000000 16.539062500000 10.996994018555 17 17 17
22.437500000000 16.531250000000 10.970993041992 153 153 153
22.109375000000 16.734375000000 9.554000854492 145 145 145
22.390625000000 16.570312500000 8.917999267578 41 41 41
22.437500000000 16.562500000000 8.893997192383 50 50 50
23.156250000000 16.125000000000 9.063995361328 107 107 107
19.343750000000 18.796875000000 8.782989501953 116 116 116
21.453125000000 17.500000000000 11.086990356445 148 148 148
22.421875000000 16.914062500000 11.002990722656 116 116 116
22.453125000000 16.882812500000 10.998992919922 25 25 25
22.109375000000 17.117187500000 9.572998046875 129 129 129
22.140625000000 17.093750000000 9.567993164063 81 81 81
22.453125000000 16.921875000000 8.904998779297 85 85 85
23.156250000000 16.515625000000 9.103988647461 58 58 58
23.187500000000 16.492187500000 9.067993164063 87 87 87
19.296875000000 19.179687500000 8.789001464844 112 112 112
21.406250000000 17.882812500000 11.104995727539 120 120 120
21.437500000000 17.867187500000 11.103988647461 57 57 57
22.421875000000 17.289062500000 11.032989501953 69 69 69
22.453125000000 17.273437500000 11.011001586914 140 140 140
22.140625000000 17.476562500000 9.576995849609 148 148 148
22.484375000000 17.304687500000 8.912002563477 90 90 90
23.171875000000 16.875000000000 9.102996826172 123 123 123
19.328125000000 19.554687500000 8.809997558594 101 101 101
21.406250000000 18.273437500000 11.140991210938 19 19 19
21.437500000000 18.242187500000 11.112991333008 142 142 142
22.453125000000 17.648437500000 11.028991699219 157 157 157
22.140625000000 17.851562500000 9.602996826172 151 151 151
22.515625000000 17.648437500000 8.930999755859 97 97 97
23.171875000000 17.257812500000 9.128997802734 129 129 129
19.328125000000 19.945312500000 8.821990966797 109 109 109
21.437500000000 18.640625000000 11.131988525391 157 157 157
22.437500000000 18.039062500000 11.055999755859 141 141 141
22.468750000000 18.023437500000 11.041000366211 15 15 15
22.125000000000 18.250000000000 9.621002197266 129 129 129
22.156250000000 18.226562500000 9.619995117188 69 69 69
22.531250000000 18.015625000000 8.946990966797 97 97 97
23.171875000000 17.640625000000 9.147994995117 123 123 123
21.437500000000 19.023437500000 11.158996582031 118 118 118
21.468750000000 19.007812500000 11.151000976563 77 77 77
22.437500000000 18.429687500000 11.071990966797 114 114 114
22.468750000000 18.398437500000 11.055999755859 123 123 123
22.125000000000 18.617187500000 9.651992797852 64 64 64
22.156250000000 18.617187500000 9.623992919922 141 141 141
22.562500000000 18.375000000000 8.944992065430 85 85 85
23.156250000000 18.007812500000 9.177001953125 132 132 132
19.312500000000 20.687500000000 8.845993041992 62 62 62
