9.562500000000 13.125000000000 65.744018554688 27 27 27
8.984375000000 12.937500000000 63.038024902344 138 138 138
9.921875000000 13.437500000000 63.216003417969 142 142 142
9.562500000000 13.250000000000 65.735015869141 26 26 26
8.984375000000 13.062500000000 63.045013427734 139 139 139
8.984375000000 13.187500000000 63.038024902344 139 139 139
7.640625000000 12.500000000000 63.518005371094 25 25 25
8.984375000000 13.312500000000 63.053009033203 142 142 142
7.640625000000 12.625000000000 63.523010253906 44 44 44
8.968750000000 13.437500000000 63.051025390625 148 148 148
7.640625000000 12.750000000000 63.519012451172 43 43 43
7.625000000000 12.875000000000 63.519012451172 83 83 83
7.640625000000 13.000000000000 63.516998291016 93 93 93
7.640625000000 13.125000000000 63.512023925781 95 95 95
7.640625000000 13.250000000000 63.510009765625 98 98 98
7.640625000000 13.437500000000 63.516998291016 96 96 96
7.734375000000 0.000000000000 64.118011474609 111 111 111
9.062500000000 0.000000000000 63.480010986328 104 104 104
8.750000000000 0.000000000000 64.108001708984 112 112 112
7.734375000000 0.125000000000 64.109008789063 129 129 129
9.078125000000 0.125000000000 63.475006103516 125 125 125
8.750000000000 0.125000000000 64.104003906250 132 132 132
7.750000000000 0.250000000000 64.107025146484 114 114 114
9.062500000000 0.250000000000 63.481018066406 136 136 136
8.750000000000 0.250000000000 64.090026855469 114 114 114
10.000000000000 0.250000000000 63.551025390625 87 87 87
7.765625000000 0.312500000000 64.094024658203 79 79 79
9.062500000000 0.375000000000 63.472015380859 166 166 166
8.765625000000 0.375000000000 64.083007812500 63 63 63
10.000000000000 0.375000000000 63.549011230469 111 111 111
9.078125000000 0.500000000000 63.472015380859 179 179 179
9.984375000000 0.500000000000 63.549011230469 132 132 132
9.078125000000 0.562500000000 63.465026855469 157 157 157
9.984375000000 0.625000000000 63.545013427734 149 149 149
9.078125000000 0.750000000000 63.456024169922 116 116 116
9.984375000000 0.687500000000 63.545013427734 160 160 160
9.046875000000 0.812500000000 63.523010253906 90 90 90
9.984375000000 0.875000000000 63.540008544922 169 169 169
7.703125000000 0.937500000000 64.054016113281 13 13 13
8.718750000000 1.000000000000 64.027008056641 76 76 76
10.000000000000 1.000000000000 63.538024902344 169 169 169
7.703125000000 1.062500000000 64.047027587891 60 60 60
8.734375000000 1.125000000000 64.028015136719 85 85 85
10.000000000000 1.125000000000 63.535003662109 161 161 161
7.703125000000 1.187500000000 64.027008056641 82 82 82
8.734375000000 1.250000000000 64.022003173828 87 87 87
10.000000000000 1.250000000000 63.516021728516 144 144 144
7.718750000000 1.375000000000 64.035003662109 96 96 96
9.046875000000 1.375000000000 63.420013427734 41 41 41
8.718750000000 1.375000000000 64.020019531250 104 104 104
10.000000000000 1.312500000000 63.525024414063 133 133 133
7.703125000000 1.500000000000 64.029022216797 112 112 112
9.031250000000 1.500000000000 63.406005859375 82 82 82
8.734375000000 1.500000000000 64.009002685547 118 118 118
10.015625000000 1.437500000000 63.535003662109 109 109 109
7.718750000000 1.625000000000 64.022003173828 129 129 129
9.046875000000 1.625000000000 63.394012451172 104 104 104
8.734375000000 1.625000000000 64.009002685547 126 126 126
10.015625000000 1.562500000000 63.519012451172 77 77 77
7.718750000000 1.750000000000 64.019012451172 124 124 124
9.046875000000 1.750000000000 63.391998291016 109 109 109
8.734375000000 1.750000000000 63.996002197266 132 132 132
7.734375000000 1.875000000000 64.008026123047 106 106 106
9.031250000000 1.875000000000 63.401000976563 123 123 123
8.750000000000 1.875000000000 63.997009277344 111 111 111
7.718750000000 2.000000000000 64.010009765625 75 75 75
9.046875000000 2.000000000000 63.396026611328 148 148 148
8.750000000000 2.000000000000 63.996002197266 78 78 78
9.046875000000 2.125000000000 63.391021728516 170 170 170
9.046875000000 2.250000000000 63.383026123047 178 178 178
9.078125000000 2.375000000000 63.383026123047 174 174 174
11.828125000000 2.375000000000 63.591003417969 77 77 77
9.078125000000 2.500000000000 63.381011962891 163 163 163
9.968750000000 2.500000000000 63.486022949219 66 66 66
11.812500000000 2.500000000000 63.580017089844 56 56 56
9.046875000000 2.625000000000 63.408020019531 114 114 114
9.984375000000 2.625000000000 63.471008300781 105 105 105
11.828125000000 2.625000000000 63.574005126953 68 68 68
7.687500000000 2.750000000000 63.946014404297 27 27 27
9.984375000000 2.750000000000 63.462005615234 117 117 117
11.828125000000 2.750000000000 63.569000244141 78 78 78
7.703125000000 2.875000000000 63.940002441406 47 47 47
8.718750000000 2.937500000000 63.899017333984 82 82 82
9.984375000000 2.875000000000 63.463012695313 115 115 115
11.812500000000 2.875000000000 63.564025878906 82 82 82
7.703125000000 3.062500000000 63.933013916016 92 92 92
8.703125000000 3.062500000000 63.919006347656 95 95 95
9.984375000000 3.000000000000 63.460021972656 137 137 137
11.828125000000 3.000000000000 63.563018798828 80 80 80
7.703125000000 3.187500000000 63.928009033203 108 108 108
8.703125000000 3.187500000000 63.916015625000 109 109 109
9.984375000000 3.125000000000 63.456024169922 138 138 138
11.828125000000 3.125000000000 63.554016113281 87 87 87
7.718750000000 3.250000000000 63.917999267578 118 118 118
9.031250000000 3.250000000000 63.331024169922 30 30 30
8.718750000000 3.250000000000 63.909027099609 128 128 128
9.984375000000 3.250000000000 63.458007812500 146 146 146
11.828125000000 3.250000000000 63.555999755859 86 86 86
7.718750000000 3.375000000000 63.916015625000 133 133 133
9.046875000000 3.375000000000 63.321014404297 75 75 75
8.718750000000 3.375000000000 63.904022216797 140 140 140
10.000000000000 3.375000000000 63.455017089844 155 155 155
11.828125000000 3.375000000000 63.547027587891 77 77 77
7.718750000000 3.500000000000 63.915008544922 117 117 117
9.062500000000 3.437500000000 63.315002441406 94 94 94
8.734375000000 3.437500000000 63.898010253906 124 124 124
9.984375000000 3.500000000000 63.451019287109 166 166 166
11.828125000000 3.500000000000 63.542999267578 68 68 68
7.734375000000 3.625000000000 63.907012939453 95 95 95
9.046875000000 3.562500000000 63.320007324219 128 128 128
8.734375000000 3.562500000000 63.894012451172 98 98 98
9.984375000000 3.625000000000 63.444000244141 169 169 169
11.828125000000 3.625000000000 63.516998291016 48 48 48
7.718750000000 3.750000000000 63.914001464844 22 22 22
9.046875000000 3.687500000000 63.317016601563 143 143 143
10.000000000000 3.750000000000 63.442016601563 160 160 160
11.843750000000 3.812500000000 63.525024414063 54 54 54
9.062500000000 3.875000000000 63.308013916016 163 163 163
9.984375000000 3.875000000000 63.449005126953 147 147 147
11.828125000000 3.937500000000 63.529022216797 22 22 22
9.062500000000 4.000000000000 63.305999755859 172 172 172
9.984375000000 4.000000000000 63.446014404297 113 113 113
11.828125000000 4.062500000000 63.507019042969 28 28 28
9.062500000000 4.125000000000 63.310028076172 176 176 176
10.000000000000 4.125000000000 63.435028076172 115 115 115
11.843750000000 4.125000000000 63.512023925781 35 35 35
9.062500000000 4.250000000000 63.303009033203 169 169 169
9.984375000000 4.250000000000 63.440002441406 74 74 74
11.828125000000 4.250000000000 63.507019042969 34 34 34
9.062500000000 4.375000000000 63.301025390625 156 156 156
10.000000000000 4.375000000000 63.444000244141 20 20 20
11.828125000000 4.375000000000 63.506011962891 35 35 35
7.671875000000 4.562500000000 63.850006103516 14 14 14
9.062500000000 4.500000000000 63.309020996094 133 133 133
11.843750000000 4.500000000000 63.502014160156 37 37 37
7.687500000000 4.687500000000 63.840026855469 60 60 60
9.046875000000 4.625000000000 63.347015380859 125 125 125
11.843750000000 4.625000000000 63.502014160156 46 46 46
7.671875000000 4.812500000000 63.844024658203 90 90 90
8.718750000000 4.750000000000 63.802001953125 95 95 95
11.843750000000 4.750000000000 63.495025634766 55 55 55
7.687500000000 4.937500000000 63.829010009766 107 107 107
8.718750000000 4.875000000000 63.817016601563 109 109 109
11.843750000000 4.875000000000 63.484008789063 55 55 55
7.703125000000 5.062500000000 63.829010009766 115 115 115
8.718750000000 5.000000000000 63.822021484375 132 132 132
11.843750000000 5.000000000000 63.482025146484 45 45 45
7.687500000000 5.187500000000 63.832000732422 124 124 124
8.718750000000 5.125000000000 63.813018798828 136 136 136
8.734375000000 5.125000000000 66.050018310547 11 11 11
11.843750000000 5.125000000000 63.471008300781 35 35 35
7.687500000000 5.312500000000 63.822021484375 122 122 122
8.734375000000 5.250000000000 63.809020996094 135 135 135
8.734375000000 5.250000000000 66.052001953125 11 11 11
7.703125000000 5.437500000000 63.825012207031 119 119 119
9.031250000000 5.437500000000 63.233001708984 67 67 67
8.734375000000 5.437500000000 63.796020507813 124 124 124
9.953125000000 5.437500000000 63.393005371094 79 79 79
8.734375000000 5.437500000000 66.065002441406 38 38 38
7.718750000000 5.500000000000 63.816009521484 94 94 94
9.031250000000 5.562500000000 63.236999511719 93 93 93
8.734375000000 5.562500000000 63.792999267578 94 94 94
9.968750000000 5.562500000000 63.378021240234 98 98 98
8.734375000000 5.562500000000 66.051025390625 39 39 39
7.718750000000 5.625000000000 63.819000244141 75 75 75
9.015625000000 5.687500000000 63.235015869141 99 99 99
8.734375000000 5.687500000000 63.805999755859 71 71 71
9.953125000000 5.687500000000 63.385009765625 104 104 104
8.750000000000 5.687500000000 66.050018310547 37 37 37
7.703125000000 5.750000000000 63.818023681641 63 63 63
9.031250000000 5.812500000000 63.241027832031 111 111 111
8.734375000000 5.812500000000 63.802001953125 58 58 58
9.953125000000 5.812500000000 63.380004882813 110 110 110
8.734375000000 5.812500000000 66.054016113281 34 34 34
9.031250000000 5.937500000000 63.235015869141 131 131 131
9.968750000000 5.937500000000 63.376007080078 133 133 133
8.750000000000 5.937500000000 66.011016845703 15 15 15
9.015625000000 6.062500000000 63.231018066406 149 149 149
9.953125000000 6.062500000000 63.395019531250 158 158 158
9.031250000000 6.187500000000 63.228027343750 153 153 153
9.953125000000 6.187500000000 63.381011962891 160 160 160
9.031250000000 6.312500000000 63.216003417969 166 166 166
9.968750000000 6.312500000000 63.366027832031 140 140 140
9.031250000000 6.375000000000 63.217010498047 170 170 170
9.968750000000 6.437500000000 63.364013671875 144 144 144
9.046875000000 6.500000000000 63.213012695313 172 172 172
9.968750000000 6.500000000000 63.358001708984 136 136 136
9.031250000000 6.625000000000 63.215026855469 181 181 181
9.984375000000 6.625000000000 63.352020263672 154 154 154
7.671875000000 6.750000000000 63.744018554688 57 57 57
9.031250000000 6.812500000000 63.218017578125 173 173 173
9.968750000000 6.812500000000 63.361999511719 161 161 161
7.671875000000 6.875000000000 63.731018066406 79 79 79
9.046875000000 6.937500000000 63.214019775391 164 164 164
9.968750000000 6.937500000000 63.363006591797 162 162 162
7.703125000000 7.000000000000 63.717010498047 91 91 91
9.031250000000 7.062500000000 63.231018066406 150 150 150
9.968750000000 7.062500000000 63.357025146484 166 166 166
11.890625000000 7.000000000000 63.412017822266 54 54 54
7.687500000000 7.125000000000 63.726013183594 102 102 102
9.000000000000 7.187500000000 63.266998291016 159 159 159
9.968750000000 7.187500000000 63.348022460938 163 163 163
11.906250000000 7.125000000000 63.419006347656 77 77 77
7.687500000000 7.250000000000 63.721008300781 106 106 106
8.984375000000 7.312500000000 63.292999267578 156 156 156
9.968750000000 7.312500000000 63.343017578125 164 164 164
11.890625000000 7.250000000000 63.412017822266 74 74 74
7.687500000000 7.437500000000 63.720001220703 110 110 110
9.968750000000 7.437500000000 63.344024658203 159 159 159
11.890625000000 7.375000000000 63.399017333984 77 77 77
7.687500000000 7.562500000000 63.715026855469 122 122 122
8.718750000000 7.562500000000 63.674011230469 139 139 139
9.984375000000 7.500000000000 63.335998535156 158 158 158
11.906250000000 7.500000000000 63.411010742188 82 82 82
7.687500000000 7.687500000000 63.714019775391 121 121 121
8.687500000000 7.687500000000 63.698028564453 141 141 141
9.968750000000 7.625000000000 63.339019775391 154 154 154
11.890625000000 7.625000000000 63.412017822266 54 54 54
7.687500000000 7.812500000000 63.704010009766 118 118 118
8.687500000000 7.812500000000 63.691009521484 141 141 141
9.968750000000 7.750000000000 63.339019775391 145 145 145
11.890625000000 7.750000000000 63.398010253906 46 46 46
7.671875000000 7.937500000000 63.707000732422 116 116 116
8.703125000000 7.937500000000 63.684020996094 126 126 126
9.984375000000 7.875000000000 63.327026367188 131 131 131
11.906250000000 7.937500000000 63.382019042969 44 44 44
7.687500000000 8.062500000000 63.695007324219 107 107 107
8.687500000000 8.062500000000 63.689025878906 107 107 107
9.968750000000 8.000000000000 63.326019287109 111 111 111
11.890625000000 8.062500000000 63.376007080078 42 42 42
7.703125000000 8.187500000000 63.690002441406 96 96 96
8.687500000000 8.187500000000 63.687011718750 74 74 74
9.968750000000 8.187500000000 63.339019775391 85 85 85
11.890625000000 8.187500000000 63.387023925781 48 48 48
7.687500000000 8.312500000000 63.704010009766 73 73 73
9.000000000000 8.375000000000 63.151000976563 25 25 25
8.703125000000 8.375000000000 63.696014404297 15 15 15
9.984375000000 8.312500000000 63.327026367188 58 58 58
11.906250000000 8.312500000000 63.364013671875 49 49 49
7.687500000000 8.437500000000 63.695007324219 19 19 19
9.031250000000 8.437500000000 63.146026611328 59 59 59
9.984375000000 8.437500000000 63.312011718750 24 24 24
11.890625000000 8.437500000000 63.377014160156 54 54 54
9.015625000000 8.562500000000 63.130004882813 83 83 83
11.890625000000 8.562500000000 63.385009765625 41 41 41
9.000000000000 8.687500000000 63.137023925781 98 98 98
9.015625000000 8.812500000000 63.131011962891 97 97 97
9.015625000000 8.937500000000 63.126007080078 120 120 120
9.000000000000 9.062500000000 63.127014160156 112 112 112
9.015625000000 9.187500000000 63.119018554688 142 142 142
9.015625000000 9.250000000000 63.120025634766 152 152 152
9.000000000000 9.375000000000 63.124023437500 166 166 166
9.015625000000 9.500000000000 63.116027832031 168 168 168
7.656250000000 9.687500000000 63.616027832031 59 59 59
9.015625000000 9.625000000000 63.120025634766 182 182 182
9.921875000000 9.625000000000 63.277008056641 40 40 40
7.656250000000 9.812500000000 63.610015869141 76 76 76
9.015625000000 9.812500000000 63.111999511719 183 183 183
9.937500000000 9.812500000000 63.285003662109 63 63 63
7.656250000000 9.937500000000 63.606018066406 82 82 82
9.015625000000 9.937500000000 63.115020751953 187 187 187
9.937500000000 9.937500000000 63.276000976563 54 54 54
11.937500000000 9.875000000000 63.332000732422 48 48 48
7.656250000000 10.062500000000 63.606018066406 94 94 94
9.015625000000 10.062500000000 63.111999511719 188 188 188
9.921875000000 10.062500000000 63.264007568359 75 75 75
11.937500000000 10.000000000000 63.317016601563 70 70 70
8.703125000000 10.062500000000 65.835021972656 10 10 10
7.656250000000 10.187500000000 63.600006103516 94 94 94
9.015625000000 10.187500000000 63.105010986328 187 187 187
9.937500000000 10.187500000000 63.278015136719 72 72 72
11.953125000000 10.125000000000 63.326019287109 81 81 81
7.656250000000 10.375000000000 63.598999023438 99 99 99
9.031250000000 10.312500000000 63.103027343750 189 189 189
9.921875000000 10.312500000000 63.270019531250 62 62 62
11.937500000000 10.250000000000 63.335021972656 76 76 76
8.687500000000 10.312500000000 65.852020263672 9 9 9
7.656250000000 10.500000000000 63.596008300781 104 104 104
9.015625000000 10.437500000000 63.105010986328 184 184 184
9.921875000000 10.437500000000 63.265014648438 83 83 83
11.937500000000 10.375000000000 63.311004638672 64 64 64
8.687500000000 10.437500000000 65.834014892578 13 13 13
7.671875000000 10.562500000000 63.591003417969 101 101 101
9.015625000000 10.562500000000 63.096008300781 180 180 180
9.937500000000 10.562500000000 63.264007568359 87 87 87
11.953125000000 10.562500000000 63.313018798828 50 50 50
8.687500000000 10.562500000000 65.826019287109 14 14 14
7.671875000000 10.687500000000 63.587005615234 112 112 112
9.031250000000 10.687500000000 63.095001220703 174 174 174
9.937500000000 10.687500000000 63.251007080078 92 92 92
8.703125000000 10.687500000000 65.818023681641 14 14 14
7.671875000000 10.812500000000 63.590026855469 117 117 117
9.015625000000 10.812500000000 63.098999023438 158 158 158
9.921875000000 10.812500000000 63.263000488281 103 103 103
8.671875000000 10.812500000000 65.850006103516 35 35 35
7.687500000000 10.937500000000 63.579010009766 112 112 112
9.015625000000 10.937500000000 63.100006103516 162 162 162
9.937500000000 10.937500000000 63.262023925781 96 96 96
8.671875000000 10.937500000000 65.843017578125 21 21 21
7.671875000000 11.062500000000 63.581024169922 118 118 118
8.968750000000 11.062500000000 63.165008544922 157 157 157
9.921875000000 11.062500000000 63.244018554688 116 116 116
8.687500000000 11.062500000000 65.828002929688 43 43 43
7.687500000000 11.187500000000 63.582000732422 116 116 116
8.968750000000 11.187500000000 63.176025390625 148 148 148
9.906250000000 11.250000000000 63.252014160156 116 116 116
8.687500000000 11.187500000000 65.837005615234 45 45 45
7.671875000000 11.312500000000 63.581024169922 120 120 120
8.890625000000 11.312500000000 63.262023925781 134 134 134
9.921875000000 11.375000000000 63.248016357422 136 136 136
8.671875000000 11.375000000000 65.844024658203 43 43 43
7.671875000000 11.437500000000 63.568023681641 110 110 110
8.750000000000 11.500000000000 63.458007812500 102 102 102
9.921875000000 11.500000000000 63.234008789063 130 130 130
8.703125000000 11.500000000000 65.817016601563 46 46 46
7.671875000000 11.562500000000 63.569000244141 114 114 114
8.953125000000 11.625000000000 63.180999755859 137 137 137
9.906250000000 11.625000000000 63.240020751953 123 123 123
8.687500000000 11.625000000000 65.810028076172 38 38 38
7.671875000000 11.750000000000 63.570007324219 103 103 103
8.687500000000 11.750000000000 63.524017333984 95 95 95
9.921875000000 11.750000000000 63.252014160156 135 135 135
8.687500000000 11.750000000000 65.814025878906 29 29 29
7.671875000000 11.875000000000 63.561004638672 103 103 103
8.687500000000 11.875000000000 63.535003662109 78 78 78
9.921875000000 11.875000000000 63.230010986328 134 134 134
8.687500000000 11.875000000000 65.817016601563 26 26 26
7.671875000000 11.937500000000 63.565002441406 84 84 84
8.687500000000 12.000000000000 63.529998779297 45 45 45
9.906250000000 12.000000000000 63.240020751953 142 142 142
7.671875000000 12.062500000000 63.555023193359 78 78 78
8.703125000000 12.125000000000 63.526000976563 30 30 30
9.921875000000 12.125000000000 63.235015869141 136 136 136
8.703125000000 12.125000000000 65.785003662109 22 22 22
7.671875000000 12.187500000000 63.559020996094 55 55 55
9.906250000000 12.250000000000 63.242004394531 164 164 164
7.671875000000 12.312500000000 63.561004638672 19 19 19
9.921875000000 12.375000000000 63.239013671875 155 155 155
9.921875000000 12.437500000000 63.226013183594 143 143 143
9.921875000000 12.562500000000 63.223999023438 145 145 145
9.937500000000 12.750000000000 63.230010986328 151 151 151
8.968750000000 12.875000000000 63.024017333984 40 40 40
9.937500000000 12.812500000000 63.219024658203 153 153 153
11.968750000000 12.812500000000 63.241027832031 68 68 68
8.984375000000 13.000000000000 63.022003173828 59 59 59
9.937500000000 12.937500000000 63.212005615234 155 155 155
8.968750000000 13.125000000000 63.028015136719 17 17 17
9.937500000000 13.062500000000 63.222015380859 151 151 151
8.968750000000 13.250000000000 63.012023925781 83 83 83
9.937500000000 13.187500000000 63.218017578125 153 153 153
8.968750000000 13.375000000000 63.020019531250 85 85 85
9.937500000000 13.312500000000 63.207000732422 153 153 153
8.984375000000 13.500000000000 63.007019042969 102 102 102
9.937500000000 13.437500000000 63.210021972656 165 165 165
11.781250000000 0.000000000000 63.702026367188 41 41 41
11.781250000000 0.125000000000 63.702026367188 48 48 48
11.796875000000 0.250000000000 63.686004638672 50 50 50
11.781250000000 0.375000000000 63.680023193359 48 48 48
11.781250000000 0.500000000000 63.676025390625 47 47 47
11.796875000000 0.625000000000 63.654998779297 48 48 48
11.796875000000 0.750000000000 63.670013427734 51 51 51
11.781250000000 0.875000000000 63.645019531250 48 48 48
11.796875000000 1.000000000000 63.654022216797 49 49 49
11.796875000000 1.125000000000 63.649017333984 44 44 44
11.796875000000 1.250000000000 63.645019531250 38 38 38
11.796875000000 1.375000000000 63.629028320313 43 43 43
11.796875000000 1.500000000000 63.626007080078 41 41 41
11.796875000000 1.625000000000 63.616027832031 49 49 49
11.796875000000 1.750000000000 63.628021240234 54 54 54
11.796875000000 1.875000000000 63.614013671875 54 54 54
11.796875000000 2.000000000000 63.594024658203 64 64 64
11.812500000000 2.125000000000 63.595001220703 63 63 63
11.781250000000 2.250000000000 63.593017578125 76 76 76
11.781250000000 2.375000000000 63.580017089844 80 80 80
11.796875000000 2.562500000000 63.573028564453 83 83 83
11.796875000000 2.687500000000 63.567016601563 83 83 83
11.781250000000 2.812500000000 63.568023681641 81 81 81
11.796875000000 2.937500000000 63.557006835938 82 82 82
11.796875000000 3.062500000000 63.541015625000 78 78 78
11.796875000000 3.187500000000 63.550018310547 80 80 80
11.796875000000 3.312500000000 63.537017822266 68 68 68
11.812500000000 3.375000000000 63.534027099609 56 56 56
11.812500000000 3.500000000000 63.529998779297 59 59 59
11.812500000000 3.625000000000 63.515014648438 55 55 55
11.812500000000 3.750000000000 63.513000488281 41 41 41
11.859375000000 6.187500000000 63.435028076172 31 31 31
11.875000000000 6.312500000000 63.440002441406 45 45 45
11.875000000000 6.500000000000 63.422027587891 52 52 52
11.859375000000 6.625000000000 63.437011718750 58 58 58
11.875000000000 6.750000000000 63.427001953125 53 53 53
11.875000000000 6.875000000000 63.421020507813 43 43 43
11.859375000000 6.937500000000 63.415008544922 44 44 44
11.875000000000 7.062500000000 63.415008544922 45 45 45
11.875000000000 7.187500000000 63.421020507813 64 64 64
11.859375000000 7.312500000000 63.409027099609 76 76 76
11.875000000000 7.375000000000 63.404998779297 87 87 87
11.890625000000 7.500000000000 63.396026611328 80 80 80
11.875000000000 7.625000000000 63.386016845703 88 88 88
11.875000000000 7.750000000000 63.384002685547 74 74 74
11.890625000000 7.937500000000 63.390014648438 43 43 43
11.921875000000 9.625000000000 63.338012695313 33 33 33
11.906250000000 9.750000000000 63.337005615234 47 47 47
11.921875000000 9.875000000000 63.323028564453 57 57 57
11.921875000000 9.937500000000 63.333007812500 41 41 41
11.906250000000 10.062500000000 63.316009521484 63 63 63
11.921875000000 10.187500000000 63.321014404297 69 69 69
11.921875000000 10.312500000000 63.312011718750 97 97 97
11.906250000000 10.437500000000 63.315002441406 96 96 96
11.921875000000 10.625000000000 63.310028076172 79 79 79
11.906250000000 10.750000000000 63.308013916016 63 63 63
11.906250000000 10.875000000000 63.300018310547 32 32 32
11.953125000000 12.250000000000 63.256011962891 31 31 31
11.953125000000 12.375000000000 63.253021240234 38 38 38
11.968750000000 12.500000000000 63.251007080078 53 53 53
11.968750000000 12.625000000000 63.244018554688 47 47 47
11.953125000000 12.750000000000 63.250000000000 49 49 49
11.968750000000 12.812500000000 63.236999511719 51 51 51
11.968750000000 12.937500000000 63.246002197266 59 59 59
11.953125000000 13.062500000000 63.241027832031 60 60 60
11.968750000000 13.250000000000 63.236022949219 69 69 69
11.968750000000 13.375000000000 63.233001708984 88 88 88
11.953125000000 13.500000000000 63.219024658203 94 94 94
9.921875000000 13.500000000000 63.227020263672 149 149 149
9.937500000000 13.312500000000 63.230010986328 147 147 147
9.921875000000 13.187500000000 63.238006591797 140 140 140
9.921875000000 13.062500000000 63.223999023438 127 127 127
9.921875000000 12.937500000000 63.225006103516 131 131 131
8.984375000000 13.437500000000 63.067016601563 152 152 152
9.937500000000 12.750000000000 63.228027343750 126 126 126
9.000000000000 13.312500000000 63.055999755859 148 148 148
9.921875000000 12.562500000000 63.231018066406 116 116 116
8.984375000000 13.187500000000 63.047027587891 150 150 150
9.921875000000 12.437500000000 63.228027343750 89 89 89
9.000000000000 13.000000000000 63.042999267578 147 147 147
9.921875000000 12.375000000000 63.238006591797 94 94 94
8.984375000000 12.875000000000 63.042999267578 145 145 145
9.593750000000 12.375000000000 65.747009277344 17 17 17
9.921875000000 12.187500000000 63.243011474609 83 83 83
9.000000000000 12.750000000000 63.038024902344 146 146 146
7.671875000000 13.500000000000 63.523010253906 90 90 90
11.921875000000 10.875000000000 63.274017333984 67 67 67
9.921875000000 12.062500000000 63.236999511719 92 92 92
9.000000000000 12.562500000000 63.047027587891 146 146 146
7.656250000000 13.375000000000 63.529022216797 86 86 86
11.921875000000 10.750000000000 63.292022705078 67 67 67
9.593750000000 12.125000000000 65.761016845703 15 15 15
9.921875000000 11.937500000000 63.234008789063 78 78 78
9.000000000000 12.375000000000 63.042999267578 143 143 143
7.656250000000 13.250000000000 63.538024902344 97 97 97
11.937500000000 10.625000000000 63.285003662109 63 63 63
9.593750000000 12.000000000000 65.771026611328 15 15 15
9.921875000000 11.812500000000 63.246002197266 84 84 84
9.000000000000 12.250000000000 63.048004150391 144 144 144
7.656250000000 13.062500000000 63.537017822266 94 94 94
11.937500000000 10.375000000000 63.299011230469 53 53 53
9.578125000000 11.875000000000 65.762023925781 15 15 15
9.921875000000 11.625000000000 63.240020751953 74 74 74
9.000000000000 12.187500000000 63.055999755859 137 137 137
7.640625000000 12.937500000000 63.540008544922 97 97 97
11.937500000000 10.250000000000 63.307006835938 27 27 27
9.593750000000 11.687500000000 65.768005371094 16 16 16
9.921875000000 11.500000000000 63.247009277344 68 68 68
8.984375000000 12.062500000000 63.055999755859 128 128 128
7.640625000000 12.812500000000 63.547027587891 100 100 100
9.921875000000 11.375000000000 63.248016357422 52 52 52
9.015625000000 11.875000000000 63.052001953125 125 125 125
7.656250000000 12.625000000000 63.544006347656 97 97 97
9.906250000000 11.250000000000 63.250000000000 54 54 54
9.015625000000 11.750000000000 63.051025390625 117 117 117
7.640625000000 12.500000000000 63.545013427734 90 90 90
9.000000000000 11.625000000000 63.058013916016 88 88 88
7.640625000000 12.375000000000 63.548004150391 63 63 63
9.000000000000 11.500000000000 63.057006835938 67 67 67
7.640625000000 12.250000000000 63.549011230469 42 42 42
8.984375000000 11.375000000000 63.068023681641 50 50 50
7.640625000000 12.062500000000 63.555023193359 22 22 22
8.671875000000 11.375000000000 63.575012207031 44 44 44
9.000000000000 11.125000000000 63.071014404297 29 29 29
8.687500000000 11.187500000000 63.570007324219 64 64 64
8.671875000000 11.062500000000 63.583007812500 69 69 69
11.875000000000 9.062500000000 63.341003417969 71 71 71
8.656250000000 10.937500000000 63.590026855469 86 86 86
11.890625000000 8.875000000000 63.348022460938 68 68 68
8.687500000000 10.750000000000 63.580017089844 87 87 87
11.890625000000 8.750000000000 63.345001220703 55 55 55
8.687500000000 10.625000000000 63.593017578125 81 81 81
11.906250000000 8.625000000000 63.355010986328 58 58 58
9.968750000000 9.750000000000 63.301025390625 39 39 39
8.671875000000 10.500000000000 63.587005615234 110 110 110
11.890625000000 8.500000000000 63.350006103516 62 62 62
9.953125000000 9.625000000000 63.294006347656 76 76 76
8.687500000000 10.312500000000 63.583007812500 118 118 118
11.906250000000 8.312500000000 63.353027343750 69 69 69
9.968750000000 9.437500000000 63.297027587891 114 114 114
8.968750000000 10.062500000000 63.206024169922 152 152 152
11.890625000000 8.187500000000 63.372009277344 70 70 70
9.953125000000 9.312500000000 63.301025390625 114 114 114
8.984375000000 9.875000000000 63.180023193359 155 155 155
11.890625000000 8.062500000000 63.373016357422 66 66 66
9.968750000000 9.187500000000 63.294006347656 131 131 131
9.000000000000 9.687500000000 63.160003662109 146 146 146
7.687500000000 10.500000000000 63.636016845703 20 20 20
11.890625000000 7.937500000000 63.377014160156 47 47 47
9.953125000000 9.062500000000 63.309020996094 149 149 149
9.015625000000 9.500000000000 63.141021728516 140 140 140
7.671875000000 10.375000000000 63.633026123047 57 57 57
9.953125000000 8.875000000000 63.316009521484 156 156 156
9.015625000000 9.375000000000 63.136016845703 141 141 141
7.687500000000 10.250000000000 63.628021240234 79 79 79
9.953125000000 8.750000000000 63.311004638672 166 166 166
9.015625000000 9.250000000000 63.136016845703 142 142 142
7.687500000000 10.062500000000 63.633026123047 82 82 82
9.968750000000 8.625000000000 63.315002441406 165 165 165
9.015625000000 9.187500000000 63.136016845703 141 141 141
7.687500000000 9.875000000000 63.634002685547 85 85 85
9.953125000000 8.500000000000 63.315002441406 150 150 150
9.031250000000 9.000000000000 63.132019042969 142 142 142
7.687500000000 9.750000000000 63.641998291016 99 99 99
9.953125000000 8.375000000000 63.324005126953 153 153 153
9.015625000000 8.875000000000 63.141998291016 137 137 137
7.687500000000 9.625000000000 63.646026611328 98 98 98
9.953125000000 8.125000000000 63.321014404297 165 165 165
9.000000000000 8.750000000000 63.149017333984 134 134 134
7.671875000000 9.500000000000 63.652008056641 98 98 98
11.859375000000 6.937500000000 63.411010742188 51 51 51
9.953125000000 8.000000000000 63.326019287109 161 161 161
9.015625000000 8.625000000000 63.143005371094 130 130 130
7.671875000000 9.375000000000 63.653015136719 103 103 103
11.859375000000 6.812500000000 63.409027099609 53 53 53
9.953125000000 7.875000000000 63.332000732422 152 152 152
9.031250000000 8.437500000000 63.148010253906 126 126 126
7.671875000000 9.187500000000 63.656005859375 90 90 90
11.843750000000 6.687500000000 63.406005859375 64 64 64
9.937500000000 7.750000000000 63.335021972656 152 152 152
9.031250000000 8.312500000000 63.145019531250 119 119 119
7.671875000000 9.062500000000 63.660003662109 70 70 70
11.843750000000 6.500000000000 63.413024902344 60 60 60
9.953125000000 7.562500000000 63.340026855469 142 142 142
8.703125000000 8.375000000000 63.688018798828 43 43 43
9.031250000000 8.125000000000 63.143005371094 99 99 99
7.656250000000 9.000000000000 63.663024902344 43 43 43
11.859375000000 6.312500000000 63.423004150391 57 57 57
9.968750000000 7.437500000000 63.325012207031 140 140 140
8.687500000000 8.187500000000 63.689025878906 69 69 69
9.015625000000 8.000000000000 63.162017822266 78 78 78
11.843750000000 6.187500000000 63.428009033203 56 56 56
9.953125000000 7.312500000000 63.333007812500 111 111 111
8.703125000000 8.000000000000 63.683013916016 97 97 97
9.031250000000 7.812500000000 63.154998779297 48 48 48
11.843750000000 6.062500000000 63.444000244141 60 60 60
9.953125000000 7.187500000000 63.335998535156 102 102 102
8.703125000000 7.875000000000 63.684020996094 109 109 109
11.859375000000 5.937500000000 63.430023193359 58 58 58
9.953125000000 7.000000000000 63.334014892578 86 86 86
8.687500000000 7.750000000000 63.703002929688 112 112 112
11.859375000000 5.750000000000 63.434020996094 67 67 67
9.953125000000 6.875000000000 63.347015380859 88 88 88
8.687500000000 7.625000000000 63.701019287109 114 114 114
11.859375000000 5.625000000000 63.434020996094 68 68 68
9.953125000000 6.687500000000 63.346008300781 84 84 84
8.687500000000 7.500000000000 63.702026367188 109 109 109
11.843750000000 5.500000000000 63.442016601563 56 56 56
9.953125000000 6.562500000000 63.351013183594 80 80 80
8.703125000000 7.312500000000 63.705017089844 115 115 115
9.968750000000 6.437500000000 63.358001708984 69 69 69
8.703125000000 7.187500000000 63.705017089844 114 114 114
9.968750000000 6.312500000000 63.360015869141 54 54 54
8.703125000000 7.062500000000 63.694000244141 104 104 104
9.953125000000 6.187500000000 63.360015869141 27 27 27
8.968750000000 6.687500000000 63.325012207031 115 115 115
9.031250000000 6.500000000000 63.257019042969 104 104 104
7.718750000000 7.375000000000 63.743011474609 52 52 52
9.031250000000 6.375000000000 63.226013183594 100 100 100
7.687500000000 7.187500000000 63.747009277344 87 87 87
9.984375000000 5.750000000000 63.402008056641 19 19 19
9.031250000000 6.312500000000 63.227020263672 118 118 118
7.718750000000 7.000000000000 63.742004394531 97 97 97
9.984375000000 5.625000000000 63.396026611328 73 73 73
9.046875000000 6.125000000000 63.232025146484 134 134 134
7.687500000000 6.875000000000 63.747009277344 99 99 99
9.984375000000 5.437500000000 63.390014648438 86 86 86
9.031250000000 6.000000000000 63.223022460938 137 137 137
7.687500000000 6.750000000000 63.755004882813 98 98 98
11.828125000000 4.187500000000 63.497009277344 38 38 38
10.000000000000 5.312500000000 63.388000488281 99 99 99
9.031250000000 5.875000000000 63.234008789063 135 135 135
7.687500000000 6.625000000000 63.765014648438 92 92 92
11.828125000000 4.062500000000 63.507019042969 61 61 61
10.000000000000 5.125000000000 63.395019531250 102 102 102
8.718750000000 5.937500000000 63.796020507813 29 29 29
9.046875000000 5.750000000000 63.232025146484 136 136 136
7.671875000000 6.500000000000 63.772003173828 87 87 87
11.812500000000 4.000000000000 63.504028320313 56 56 56
9.984375000000 5.000000000000 63.398010253906 110 110 110
8.734375000000 5.750000000000 63.799011230469 40 40 40
9.046875000000 5.562500000000 63.236999511719 131 131 131
7.703125000000 6.312500000000 63.765014648438 72 72 72
11.812500000000 3.875000000000 63.514007568359 49 49 49
10.000000000000 4.812500000000 63.411010742188 129 129 129
8.718750000000 5.625000000000 63.801025390625 66 66 66
9.031250000000 5.437500000000 63.249023437500 133 133 133
7.687500000000 6.187500000000 63.777008056641 58 58 58
11.812500000000 3.625000000000 63.520019531250 52 52 52
9.984375000000 4.687500000000 63.417022705078 160 160 160
8.718750000000 5.500000000000 63.798004150391 78 78 78
9.031250000000 5.250000000000 63.245025634766 128 128 128
7.671875000000 6.062500000000 63.787017822266 38 38 38
11.812500000000 3.500000000000 63.519012451172 58 58 58
9.984375000000 4.562500000000 63.411010742188 123 123 123
8.718750000000 5.312500000000 63.815002441406 95 95 95
9.015625000000 5.125000000000 63.259002685547 117 117 117
11.812500000000 3.375000000000 63.528015136719 60 60 60
9.984375000000 4.437500000000 63.428009033203 154 154 154
8.703125000000 5.187500000000 63.807006835938 109 109 109
9.031250000000 5.000000000000 63.259002685547 89 89 89
11.796875000000 3.250000000000 63.529022216797 60 60 60
9.984375000000 4.250000000000 63.417022705078 170 170 170
8.718750000000 5.000000000000 63.817016601563 111 111 111
9.046875000000 4.812500000000 63.251007080078 52 52 52
11.812500000000 3.062500000000 63.529998779297 70 70 70
9.984375000000 4.125000000000 63.427001953125 156 156 156
8.718750000000 4.875000000000 63.816009521484 101 101 101
11.812500000000 2.937500000000 63.553009033203 70 70 70
9.968750000000 4.000000000000 63.433013916016 152 152 152
8.703125000000 4.750000000000 63.807006835938 64 64 64
11.796875000000 2.812500000000 63.546020507813 70 70 70
9.984375000000 3.875000000000 63.417022705078 151 151 151
8.703125000000 4.625000000000 63.802001953125 53 53 53
11.812500000000 2.687500000000 63.555023193359 73 73 73
10.000000000000 3.625000000000 63.430023193359 129 129 129
9.062500000000 4.250000000000 63.326019287109 67 67 67
7.718750000000 5.062500000000 63.843017578125 77 77 77
11.812500000000 2.500000000000 63.571014404297 70 70 70
9.984375000000 3.562500000000 63.430999755859 111 111 111
9.062500000000 4.125000000000 63.304016113281 82 82 82
7.718750000000 4.875000000000 63.851013183594 93 93 93
11.812500000000 2.375000000000 63.577026367188 54 54 54
9.984375000000 3.437500000000 63.443023681641 96 96 96
9.078125000000 3.937500000000 63.307006835938 102 102 102
7.718750000000 4.750000000000 63.854003906250 92 92 92
9.984375000000 3.312500000000 63.437011718750 93 93 93
9.062500000000 3.812500000000 63.308013916016 117 117 117
7.703125000000 4.625000000000 63.855010986328 99 99 99
9.968750000000 3.187500000000 63.442016601563 77 77 77
8.718750000000 3.875000000000 63.903015136719 16 16 16
9.062500000000 3.625000000000 63.314025878906 131 131 131
7.687500000000 4.500000000000 63.861022949219 99 99 99
8.718750000000 3.687500000000 63.881011962891 74 74 74
9.062500000000 3.500000000000 63.316009521484 137 137 137
7.703125000000 4.312500000000 63.874023437500 78 78 78
8.718750000000 3.562500000000 63.891998291016 104 104 104
9.062500000000 3.375000000000 63.319000244141 131 131 131
7.703125000000 4.125000000000 63.869018554688 30 30 30
8.718750000000 3.375000000000 63.906005859375 112 112 112
9.046875000000 3.250000000000 63.322021484375 110 110 110
10.015625000000 2.562500000000 63.479003906250 105 105 105
8.703125000000 3.312500000000 63.903015136719 110 110 110
9.046875000000 3.125000000000 63.330017089844 66 66 66
10.000000000000 2.437500000000 63.481018066406 118 118 118
8.703125000000 3.187500000000 63.912017822266 81 81 81
10.000000000000 2.312500000000 63.494018554688 154 154 154
8.703125000000 3.062500000000 63.910003662109 35 35 35
10.000000000000 2.062500000000 63.485015869141 180 180 180
9.046875000000 2.687500000000 63.410003662109 49 49 49
7.718750000000 3.437500000000 63.932006835938 42 42 42
9.984375000000 1.937500000000 63.495025634766 164 164 164
9.078125000000 2.562500000000 63.359008789063 74 74 74
7.734375000000 3.250000000000 63.924011230469 85 85 85
10.000000000000 1.812500000000 63.488006591797 166 166 166
9.078125000000 2.375000000000 63.368011474609 101 101 101
7.718750000000 3.187500000000 63.930999755859 97 97 97
9.984375000000 1.687500000000 63.497009277344 152 152 152
8.750000000000 2.437500000000 63.977020263672 25 25 25
9.062500000000 2.250000000000 63.378021240234 127 127 127
7.718750000000 3.062500000000 63.940002441406 97 97 97
10.000000000000 1.500000000000 63.500000000000 144 144 144
8.750000000000 2.250000000000 63.965026855469 50 50 50
9.062500000000 2.062500000000 63.380004882813 137 137 137
7.718750000000 2.875000000000 63.934020996094 95 95 95
9.984375000000 1.375000000000 63.510009765625 155 155 155
8.734375000000 2.125000000000 63.971008300781 83 83 83
9.062500000000 1.937500000000 63.383026123047 143 143 143
7.703125000000 2.750000000000 63.944000244141 83 83 83
11.765625000000 0.250000000000 63.672027587891 34 34 34
9.984375000000 1.250000000000 63.506011962891 128 128 128
8.750000000000 2.000000000000 63.972015380859 108 108 108
9.046875000000 1.812500000000 63.389007568359 137 137 137
7.687500000000 2.625000000000 63.963012695313 51 51 51
11.750000000000 0.125000000000 63.661010742188 45 45 45
9.984375000000 1.125000000000 63.511016845703 94 94 94
8.734375000000 1.875000000000 63.986022949219 108 108 108
9.062500000000 1.625000000000 63.399017333984 117 117 117
11.750000000000 0.000000000000 63.679016113281 53 53 53
9.984375000000 1.000000000000 63.515014648438 61 61 61
8.734375000000 1.687500000000 63.986022949219 112 112 112
9.046875000000 1.500000000000 63.382019042969 79 79 79
8.734375000000 1.562500000000 63.982025146484 73 73 73
10.015625000000 0.500000000000 63.547027587891 91 91 91
9.078125000000 1.062500000000 63.446014404297 23 23 23
7.734375000000 1.875000000000 64.006011962891 48 48 48
10.015625000000 0.375000000000 63.551025390625 140 140 140
9.078125000000 0.937500000000 63.446014404297 69 69 69
7.734375000000 1.750000000000 64.018005371094 87 87 87
10.031250000000 0.250000000000 63.552001953125 154 154 154
8.750000000000 1.000000000000 64.044006347656 15 15 15
9.093750000000 0.750000000000 63.440002441406 104 104 104
7.734375000000 1.562500000000 64.018005371094 96 96 96
10.015625000000 0.125000000000 63.550018310547 175 175 175
8.765625000000 0.750000000000 64.052001953125 70 70 70
9.078125000000 0.562500000000 63.446014404297 135 135 135
7.718750000000 1.437500000000 64.024017333984 97 97 97
8.734375000000 0.625000000000 64.058013916016 90 90 90
9.078125000000 0.500000000000 63.453002929688 142 142 142
7.718750000000 1.250000000000 64.033020019531 84 84 84
8.734375000000 0.500000000000 64.065002441406 99 99 99
9.078125000000 0.375000000000 63.452026367188 142 142 142
7.703125000000 1.125000000000 64.036010742188 64 64 64
8.750000000000 0.437500000000 64.060028076172 107 107 107
9.062500000000 0.250000000000 63.464019775391 132 132 132
7.703125000000 1.000000000000 64.044006347656 30 30 30
8.734375000000 0.312500000000 64.067016601563 114 114 114
9.078125000000 0.062500000000 63.460021972656 115 115 115
8.734375000000 0.125000000000 64.084014892578 100 100 100
8.750000000000 0.000000000000 64.068023681641 55 55 55
7.765625000000 0.250000000000 64.100006103516 64 64 64
7.750000000000 0.187500000000 64.108001708984 97 97 97
7.750000000000 0.000000000000 64.109008789063 96 96 96
11.953125000000 13.500000000000 63.213012695313 96 96 96
11.953125000000 13.375000000000 63.220001220703 87 87 87
11.968750000000 13.125000000000 63.208007812500 76 76 76
11.953125000000 13.000000000000 63.210021972656 65 65 65
11.953125000000 12.875000000000 63.222015380859 63 63 63
11.953125000000 12.812500000000 63.233001708984 58 58 58
11.968750000000 12.625000000000 63.210998535156 52 52 52
11.953125000000 12.500000000000 63.238006591797 46 46 46
11.953125000000 12.375000000000 63.248016357422 37 37 37
11.906250000000 10.437500000000 63.277008056641 84 84 84
11.906250000000 10.312500000000 63.288024902344 99 99 99
11.921875000000 10.125000000000 63.305023193359 89 89 89
11.906250000000 10.000000000000 63.303009033203 75 75 75
11.906250000000 9.875000000000 63.301025390625 53 53 53
11.906250000000 9.812500000000 63.307006835938 45 45 45
11.921875000000 9.625000000000 63.302001953125 51 51 51
11.921875000000 9.500000000000 63.307006835938 54 54 54
11.906250000000 9.375000000000 63.316009521484 46 46 46
11.906250000000 9.250000000000 63.333007812500 32 32 32
11.859375000000 7.312500000000 63.390014648438 59 59 59
11.859375000000 7.187500000000 63.406005859375 84 84 84
11.859375000000 7.000000000000 63.398010253906 94 94 94
11.859375000000 6.937500000000 63.399017333984 83 83 83
11.859375000000 6.812500000000 63.409027099609 67 67 67
11.843750000000 6.687500000000 63.419006347656 52 52 52
11.875000000000 6.500000000000 63.414001464844 54 54 54
11.875000000000 6.312500000000 63.407012939453 53 53 53
11.859375000000 6.187500000000 63.433013916016 59 59 59
11.859375000000 6.062500000000 63.411010742188 49 49 49
11.859375000000 5.875000000000 63.426025390625 54 54 54
11.859375000000 5.750000000000 63.452026367188 26 26 26
11.812500000000 3.937500000000 63.498016357422 74 74 74
11.812500000000 3.750000000000 63.504028320313 79 79 79
11.796875000000 3.625000000000 63.501007080078 84 84 84
11.812500000000 3.437500000000 63.508026123047 80 80 80
11.812500000000 3.312500000000 63.520019531250 79 79 79
11.796875000000 3.187500000000 63.524017333984 66 66 66
11.796875000000 3.062500000000 63.532012939453 54 54 54
11.812500000000 2.875000000000 63.541015625000 51 51 51
11.812500000000 2.750000000000 63.548004150391 47 47 47
11.812500000000 2.625000000000 63.552001953125 54 54 54
11.796875000000 2.500000000000 63.547027587891 56 56 56
11.812500000000 2.250000000000 63.568023681641 54 54 54
11.812500000000 2.125000000000 63.566009521484 49 49 49
11.812500000000 2.000000000000 63.577026367188 44 44 44
11.812500000000 1.875000000000 63.588012695313 34 34 34
11.812500000000 1.687500000000 63.585998535156 19 19 19
11.937500000000 13.500000000000 63.207000732422 76 76 76
11.937500000000 13.375000000000 63.214019775391 75 75 75
11.953125000000 13.125000000000 63.209014892578 79 79 79
11.937500000000 13.000000000000 63.210021972656 77 77 77
11.937500000000 12.875000000000 63.221008300781 70 70 70
11.937500000000 12.812500000000 63.223022460938 68 68 68
11.937500000000 12.625000000000 63.227020263672 64 64 64
11.937500000000 12.500000000000 63.223999023438 54 54 54
11.921875000000 12.375000000000 63.236022949219 41 41 41
11.921875000000 12.250000000000 63.234008789063 37 37 37
11.890625000000 10.875000000000 63.276000976563 48 48 48
11.890625000000 10.750000000000 63.283020019531 70 70 70
11.890625000000 10.562500000000 63.279022216797 81 81 81
11.890625000000 10.437500000000 63.279998779297 74 74 74
11.906250000000 10.250000000000 63.283020019531 57 57 57
11.906250000000 10.125000000000 63.294006347656 41 41 41
11.890625000000 10.000000000000 63.289001464844 35 35 35
11.859375000000 8.312500000000 63.360015869141 59 59 59
11.859375000000 8.125000000000 63.368011474609 67 67 67
11.859375000000 8.000000000000 63.364013671875 72 72 72
11.859375000000 7.812500000000 63.359008789063 67 67 67
11.843750000000 7.687500000000 63.379028320313 67 67 67
11.859375000000 7.500000000000 63.377014160156 56 56 56
9.921875000000 13.437500000000 63.215026855469 133 133 133
9.921875000000 13.312500000000 63.216003417969 130 130 130
9.906250000000 13.187500000000 63.225006103516 127 127 127
7.656250000000 13.000000000000 63.546020507813 68 68 68
9.921875000000 13.000000000000 63.215026855469 115 115 115
7.656250000000 12.875000000000 63.534027099609 106 106 106
9.906250000000 12.875000000000 63.232025146484 74 74 74
7.671875000000 12.687500000000 63.542999267578 106 106 106
9.921875000000 12.750000000000 63.217010498047 74 74 74
11.953125000000 12.750000000000 63.245025634766 66 66 66
7.656250000000 12.562500000000 63.540008544922 114 114 114
8.921875000000 12.562500000000 63.167022705078 80 80 80
9.906250000000 12.562500000000 63.227020263672 61 61 61
7.640625000000 12.437500000000 63.557006835938 123 123 123
8.968750000000 12.375000000000 63.091003417969 113 113 113
9.906250000000 12.375000000000 63.241027832031 32 32 32
7.640625000000 12.312500000000 63.550018310547 127 127 127
9.000000000000 12.250000000000 63.072021484375 127 127 127
7.640625000000 12.125000000000 63.558013916016 132 132 132
8.984375000000 12.187500000000 63.077026367188 147 147 147
8.687500000000 12.125000000000 65.776000976563 16 16 16
7.640625000000 12.000000000000 63.560028076172 115 115 115
8.984375000000 12.062500000000 63.078002929688 149 149 149
7.656250000000 11.937500000000 63.557006835938 117 117 117
9.015625000000 11.875000000000 63.079010009766 151 151 151
8.703125000000 11.875000000000 65.772003173828 16 16 16
7.640625000000 11.750000000000 63.561004638672 122 122 122
9.015625000000 11.750000000000 63.068023681641 161 161 161
8.687500000000 11.750000000000 65.792999267578 29 29 29
7.640625000000 11.625000000000 63.567016601563 106 106 106
9.015625000000 11.625000000000 63.069000244141 176 176 176
8.687500000000 11.625000000000 65.798004150391 19 19 19
7.640625000000 11.437500000000 63.565002441406 106 106 106
9.015625000000 11.500000000000 63.063018798828 176 176 176
8.703125000000 11.437500000000 65.804016113281 48 48 48
7.656250000000 11.312500000000 63.567016601563 103 103 103
9.015625000000 11.312500000000 63.071014404297 188 188 188
8.687500000000 11.250000000000 65.798004150391 18 18 18
7.656250000000 11.187500000000 63.567016601563 89 89 89
9.015625000000 11.125000000000 63.064025878906 190 190 190
8.687500000000 11.125000000000 65.795013427734 16 16 16
7.625000000000 11.062500000000 63.581024169922 78 78 78
9.000000000000 11.000000000000 63.069000244141 185 185 185
7.656250000000 10.875000000000 63.577026367188 65 65 65
9.000000000000 10.875000000000 63.075012207031 178 178 178
9.015625000000 10.687500000000 63.072021484375 167 167 167
8.687500000000 10.687500000000 65.822021484375 10 10 10
