14.312500000000 7.875000000000 49.069000244141 207 207 207
14.187500000000 7.937500000000 49.059997558594 207 207 207
14.187500000000 7.937500000000 49.002998352051 206 206 206
14.187500000000 7.937500000000 48.944999694824 167 167 167
14.312500000000 7.687500000000 49.070999145508 205 205 205
14.187500000000 7.812500000000 49.057998657227 208 208 208
14.187500000000 7.812500000000 48.997997283936 208 208 208
14.187500000000 7.812500000000 48.938999176025 156 156 156
14.312500000000 7.687500000000 49.073997497559 203 203 203
14.187500000000 7.687500000000 49.053997039795 208 208 208
14.187500000000 7.687500000000 48.994998931885 207 207 207
14.125000000000 7.750000000000 48.945999145508 87 87 87
14.312500000000 7.500000000000 49.076000213623 198 198 198
14.187500000000 7.562500000000 49.052997589111 208 208 208
14.187500000000 7.562500000000 48.992996215820 209 209 209
14.187500000000 7.562500000000 48.933998107910 66 66 66
14.250000000000 7.437500000000 49.081996917725 153 153 153
14.187500000000 7.500000000000 49.052997589111 200 200 200
14.187500000000 7.500000000000 48.990997314453 204 204 204
14.187500000000 7.437500000000 48.926998138428 24 24 24
14.250000000000 7.312500000000 49.083999633789 146 146 146
14.187500000000 7.375000000000 49.046997070313 211 211 211
14.187500000000 7.375000000000 48.989997863770 208 208 208
14.187500000000 7.375000000000 48.932998657227 28 28 28
14.250000000000 7.125000000000 49.085998535156 163 163 163
14.250000000000 7.187500000000 49.043998718262 213 213 213
14.187500000000 7.187500000000 48.985996246338 207 207 207
14.250000000000 7.062500000000 49.092998504639 86 86 86
14.187500000000 7.062500000000 49.044998168945 186 186 186
14.187500000000 7.062500000000 48.985996246338 179 179 179
13.937500000000 11.687500000000 48.941997528076 159 159 159
13.937500000000 11.687500000000 48.997997283936 159 159 159
13.875000000000 11.500000000000 48.835998535156 178 178 178
13.875000000000 11.500000000000 48.891998291016 183 183 183
13.875000000000 11.437500000000 48.956996917725 152 152 152
13.937500000000 11.500000000000 49.000999450684 155 155 155
13.875000000000 11.500000000000 49.057998657227 188 188 188
13.875000000000 11.500000000000 49.113998413086 186 186 186
13.937500000000 11.375000000000 48.888996124268 180 180 180
13.875000000000 11.375000000000 48.949996948242 184 184 184
13.875000000000 11.375000000000 49.002998352051 191 191 191
13.937500000000 11.375000000000 49.055999755859 186 186 186
13.937500000000 11.375000000000 49.092998504639 163 163 163
13.937500000000 11.312500000000 48.883998870850 175 175 175
13.937500000000 11.312500000000 48.939998626709 182 182 182
13.937500000000 11.312500000000 48.996997833252 185 185 185
13.937500000000 11.312500000000 49.052997589111 186 186 186
14.562500000000 11.625000000000 49.031997680664 141 141 141
13.937500000000 11.125000000000 48.887996673584 180 180 180
13.937500000000 11.125000000000 48.945999145508 185 185 185
13.937500000000 11.125000000000 49.002998352051 182 182 182
13.937500000000 11.125000000000 49.057998657227 192 192 192
14.562500000000 11.562500000000 48.904998779297 193 193 193
14.562500000000 11.562500000000 48.967998504639 192 192 192
14.562500000000 11.562500000000 49.030998229980 191 191 191
14.562500000000 11.562500000000 49.094997406006 191 191 191
13.937500000000 11.000000000000 48.888996124268 170 170 170
13.937500000000 11.000000000000 48.944999694824 146 146 146
13.937500000000 11.000000000000 48.999996185303 161 161 161
13.875000000000 11.000000000000 49.055999755859 178 178 178
14.562500000000 11.375000000000 48.906997680664 194 194 194
14.562500000000 11.375000000000 48.966999053955 192 192 192
14.562500000000 11.375000000000 49.031997680664 194 194 194
14.562500000000 11.375000000000 49.093997955322 187 187 187
14.125000000000 10.937500000000 48.762996673584 144 144 144
13.937500000000 10.937500000000 48.865997314453 173 173 173
13.937500000000 10.875000000000 48.941997528076 139 139 139
13.937500000000 10.875000000000 48.995998382568 152 152 152
13.937500000000 10.875000000000 49.055000305176 164 164 164
14.125000000000 10.937500000000 49.058998107910 145 145 145
14.125000000000 10.937500000000 49.111999511719 149 149 149
14.125000000000 10.937500000000 49.166999816895 159 159 159
14.125000000000 10.937500000000 49.224998474121 137 137 137
14.125000000000 10.875000000000 48.763996124268 159 159 159
14.000000000000 10.812500000000 48.854999542236 173 173 173
13.937500000000 10.750000000000 48.939998626709 151 151 151
13.875000000000 10.687500000000 49.000999450684 140 140 140
13.937500000000 10.750000000000 49.050998687744 164 164 164
14.000000000000 10.812500000000 49.073997497559 143 143 143
14.000000000000 10.875000000000 49.112998962402 165 165 165
14.000000000000 10.875000000000 49.169998168945 159 159 159
14.000000000000 10.875000000000 49.226997375488 138 138 138
14.250000000000 11.000000000000 49.236999511719 112 112 112
14.187500000000 10.812500000000 48.294998168945 139 139 139
14.187500000000 10.812500000000 48.359996795654 126 126 126
14.187500000000 10.750000000000 48.420997619629 121 121 121
14.125000000000 10.812500000000 48.486999511719 118 118 118
14.125000000000 10.812500000000 48.551998138428 113 113 113
14.125000000000 10.812500000000 48.610996246338 127 127 127
14.125000000000 10.812500000000 48.671997070313 117 117 117
14.125000000000 10.750000000000 48.764999389648 165 165 165
14.000000000000 10.687500000000 48.835998535156 175 175 175
13.937500000000 10.562500000000 48.940998077393 148 148 148
13.937500000000 10.562500000000 48.993999481201 170 170 170
13.937500000000 10.562500000000 49.050998687744 157 157 157
14.125000000000 10.750000000000 49.057998657227 164 164 164
14.125000000000 10.750000000000 49.113998413086 162 162 162
14.125000000000 10.750000000000 49.169998168945 163 163 163
14.125000000000 10.750000000000 49.225997924805 149 149 149
14.250000000000 10.812500000000 49.241996765137 120 120 120
14.250000000000 10.687500000000 48.323997497559 108 108 108
14.250000000000 10.687500000000 48.386997222900 100 100 100
14.250000000000 10.687500000000 48.448997497559 102 102 102
14.250000000000 10.687500000000 48.510997772217 98 98 98
14.250000000000 10.687500000000 48.569999694824 114 114 114
14.187500000000 10.687500000000 48.642997741699 119 119 119
14.125000000000 10.625000000000 48.751998901367 118 118 118
14.125000000000 10.625000000000 48.812999725342 114 114 114
13.937500000000 10.562500000000 48.938999176025 213 213 213
13.937500000000 10.562500000000 48.993999481201 211 211 211
13.937500000000 10.562500000000 49.049999237061 208 208 208
14.125000000000 10.625000000000 49.044998168945 163 163 163
14.125000000000 10.625000000000 49.097999572754 160 160 160
14.125000000000 10.625000000000 49.153999328613 157 157 157
14.125000000000 10.625000000000 49.208999633789 143 143 143
14.187500000000 10.687500000000 49.240997314453 117 117 117
14.312500000000 10.625000000000 48.734996795654 44 44 44
13.937500000000 10.375000000000 48.935997009277 211 211 211
13.937500000000 10.375000000000 48.989997863770 215 215 215
13.937500000000 10.375000000000 49.046997070313 210 210 210
14.312500000000 10.625000000000 48.976997375488 138 138 138
14.312500000000 10.625000000000 49.035999298096 81 81 81
14.312500000000 10.625000000000 49.098999023438 113 113 113
14.312500000000 10.625000000000 49.154998779297 119 119 119
13.937500000000 10.250000000000 48.932998657227 215 215 215
13.937500000000 10.250000000000 48.986999511719 214 214 214
13.937500000000 10.250000000000 49.041999816895 208 208 208
14.562500000000 10.687500000000 48.903999328613 188 188 188
14.562500000000 10.625000000000 48.967998504639 185 185 185
14.562500000000 10.687500000000 49.031997680664 191 191 191
13.937500000000 10.125000000000 48.927997589111 207 207 207
13.937500000000 10.125000000000 48.984996795654 211 211 211
13.937500000000 10.125000000000 49.039997100830 211 211 211
14.562500000000 10.437500000000 48.899997711182 30 30 30
14.562500000000 10.500000000000 48.971996307373 201 201 201
14.562500000000 10.437500000000 49.031997680664 200 200 200
14.000000000000 10.000000000000 48.924999237061 196 196 196
14.000000000000 10.000000000000 48.979999542236 211 211 211
14.000000000000 10.000000000000 49.034996032715 210 210 210
14.562500000000 10.437500000000 48.965000152588 212 212 212
14.562500000000 10.375000000000 49.029998779297 201 201 201
14.000000000000 9.937500000000 48.913997650146 174 174 174
14.000000000000 9.937500000000 48.974998474121 210 210 210
13.937500000000 9.812500000000 49.031997680664 213 213 213
14.000000000000 9.875000000000 49.076999664307 134 134 134
14.562500000000 10.250000000000 48.969997406006 203 203 203
14.562500000000 10.250000000000 49.034000396729 193 193 193
14.000000000000 9.812500000000 48.909996032715 134 134 134
14.000000000000 9.812500000000 48.971996307373 211 211 211
14.000000000000 9.812500000000 49.027996063232 209 209 209
14.000000000000 9.750000000000 49.062999725342 209 209 209
14.562500000000 10.062500000000 48.972999572754 209 209 209
14.562500000000 10.062500000000 49.034996032715 188 188 188
14.000000000000 9.687500000000 48.965999603271 213 213 213
14.000000000000 9.687500000000 49.020996093750 211 211 211
14.125000000000 9.750000000000 49.063999176025 228 228 228
14.562500000000 9.937500000000 48.975997924805 206 206 206
14.562500000000 9.937500000000 49.041000366211 187 187 187
14.000000000000 9.500000000000 48.961997985840 202 202 202
14.000000000000 9.500000000000 49.016998291016 204 204 204
14.000000000000 9.562500000000 49.064998626709 218 218 218
14.500000000000 9.812500000000 48.980998992920 203 203 203
14.500000000000 9.812500000000 49.042999267578 190 190 190
14.000000000000 9.437500000000 48.958000183105 208 208 208
14.000000000000 9.437500000000 49.013996124268 203 203 203
14.000000000000 9.437500000000 49.069000244141 209 209 209
14.500000000000 9.687500000000 48.985996246338 203 203 203
14.500000000000 9.687500000000 49.048999786377 190 190 190
14.062500000000 9.312500000000 48.955997467041 215 215 215
14.062500000000 9.312500000000 49.009998321533 213 213 213
14.062500000000 9.312500000000 49.066997528076 207 207 207
14.562500000000 9.562500000000 48.988998413086 187 187 187
14.500000000000 9.500000000000 49.052997589111 192 192 192
14.000000000000 9.125000000000 48.949996948242 215 215 215
14.000000000000 9.125000000000 49.008998870850 212 212 212
14.000000000000 9.125000000000 49.062999725342 215 215 215
14.500000000000 9.437500000000 48.993999481201 164 164 164
14.500000000000 9.437500000000 49.059997558594 194 194 194
14.125000000000 9.062500000000 48.951000213623 209 209 209
14.125000000000 9.062500000000 49.004997253418 209 209 209
14.125000000000 9.062500000000 49.063999176025 212 212 212
14.500000000000 9.312500000000 48.998996734619 206 206 206
14.500000000000 9.312500000000 49.062999725342 194 194 194
14.125000000000 8.937500000000 48.946998596191 211 211 211
14.125000000000 8.937500000000 49.003997802734 212 212 212
14.125000000000 9.000000000000 49.060997009277 212 212 212
14.500000000000 9.125000000000 49.005996704102 206 206 206
14.500000000000 9.125000000000 49.069999694824 191 191 191
14.125000000000 8.812500000000 48.942996978760 204 204 204
14.125000000000 8.812500000000 48.999996185303 209 209 209
14.125000000000 8.812500000000 49.058998107910 212 212 212
14.437500000000 9.000000000000 49.012996673584 205 205 205
14.437500000000 9.000000000000 49.073997497559 185 185 185
14.125000000000 8.687500000000 48.940998077393 192 192 192
14.125000000000 8.687500000000 48.995998382568 209 209 209
14.125000000000 8.687500000000 49.053997039795 211 211 211
14.375000000000 8.875000000000 49.015998840332 203 203 203
14.437500000000 8.937500000000 49.072998046875 177 177 177
14.125000000000 8.562500000000 48.935997009277 176 176 176
14.125000000000 8.562500000000 48.991996765137 212 212 212
14.125000000000 8.562500000000 49.050998687744 212 212 212
14.437500000000 8.750000000000 49.017997741699 205 205 205
14.437500000000 8.750000000000 49.078998565674 157 157 157
14.125000000000 8.437500000000 48.935997009277 115 115 115
14.125000000000 8.437500000000 48.986999511719 208 208 208
14.125000000000 8.437500000000 49.046997070313 213 213 213
14.437500000000 8.625000000000 49.024997711182 204 204 204
14.437500000000 8.625000000000 49.078998565674 140 140 140
14.187500000000 8.312500000000 48.916999816895 55 55 55
14.125000000000 8.250000000000 48.985996246338 206 206 206
14.125000000000 8.250000000000 49.042999267578 211 211 211
14.375000000000 8.437500000000 49.028999328613 203 203 203
14.375000000000 8.437500000000 49.085998535156 87 87 87
14.187500000000 8.250000000000 48.980998992920 211 211 211
14.187500000000 8.250000000000 49.039997100830 212 212 212
14.187500000000 8.187500000000 49.090999603271 125 125 125
14.187500000000 8.187500000000 49.133998870850 142 142 142
14.187500000000 8.187500000000 49.192996978760 148 148 148
14.187500000000 8.187500000000 49.252998352051 115 115 115
14.187500000000 8.125000000000 48.977996826172 213 213 213
14.187500000000 8.125000000000 49.034996032715 212 212 212
14.375000000000 8.187500000000 49.043998718262 203 203 203
14.312500000000 8.125000000000 49.108997344971 95 95 95
14.312500000000 8.125000000000 49.166999816895 89 89 89
14.187500000000 7.937500000000 48.976997375488 213 213 213
14.187500000000 7.937500000000 49.034996032715 211 211 211
14.375000000000 8.062500000000 49.046997070313 202 202 202
14.187500000000 7.812500000000 48.975997924805 211 211 211
14.187500000000 7.812500000000 49.035999298096 213 213 213
14.312500000000 7.937500000000 49.052997589111 204 204 204
14.187500000000 7.687500000000 48.977996826172 206 206 206
14.187500000000 7.687500000000 49.036998748779 208 208 208
14.250000000000 7.750000000000 49.065998077393 201 201 201
14.187500000000 7.562500000000 48.975997924805 211 211 211
14.187500000000 7.562500000000 49.036998748779 210 210 210
14.312500000000 7.687500000000 49.062999725342 205 205 205
14.187500000000 7.500000000000 48.980998992920 196 196 196
14.250000000000 7.500000000000 49.036998748779 205 205 205
14.250000000000 7.500000000000 49.072998046875 198 198 198
14.187500000000 7.375000000000 48.977996826172 204 204 204
14.187500000000 7.375000000000 49.039997100830 192 192 192
14.250000000000 7.437500000000 49.081996917725 169 169 169
14.187500000000 7.187500000000 48.977996826172 201 201 201
14.187500000000 7.187500000000 49.037998199463 200 200 200
14.250000000000 7.250000000000 49.083999633789 176 176 176
14.187500000000 7.062500000000 48.977996826172 202 202 202
14.187500000000 7.062500000000 49.036998748779 207 207 207
14.250000000000 7.125000000000 49.084999084473 179 179 179
14.562500000000 11.562500000000 49.129997253418 137 137 137
14.562500000000 11.562500000000 49.081996917725 211 211 211
14.562500000000 11.562500000000 49.027996063232 208 208 208
14.562500000000 11.562500000000 48.973999023438 213 213 213
13.875000000000 11.500000000000 49.085998535156 213 213 213
13.875000000000 11.500000000000 49.038997650146 202 202 202
13.875000000000 11.500000000000 48.993999481201 178 178 178
13.875000000000 11.500000000000 48.944999694824 171 171 171
13.875000000000 11.500000000000 48.897998809814 197 197 197
13.875000000000 11.500000000000 48.846996307373 193 193 193
14.625000000000 11.437500000000 49.078998565674 221 221 221
14.562500000000 11.375000000000 49.027996063232 211 211 211
14.562500000000 11.375000000000 48.971996307373 211 211 211
13.875000000000 11.437500000000 49.085998535156 187 187 187
13.875000000000 11.437500000000 49.037998199463 209 209 209
13.875000000000 11.437500000000 48.991996765137 208 208 208
13.875000000000 11.437500000000 48.944000244141 205 205 205
13.875000000000 11.437500000000 48.894996643066 206 206 206
13.875000000000 11.437500000000 48.850997924805 162 162 162
14.562500000000 11.312500000000 49.080997467041 161 161 161
14.562500000000 11.250000000000 49.019996643066 191 191 191
14.562500000000 11.250000000000 48.963996887207 200 200 200
14.562500000000 11.250000000000 48.906997680664 203 203 203
13.875000000000 11.312500000000 49.035999298096 205 205 205
13.875000000000 11.312500000000 48.987998962402 204 204 204
13.875000000000 11.312500000000 48.939998626709 205 205 205
13.875000000000 11.312500000000 48.891998291016 191 191 191
14.562500000000 11.187500000000 49.080997467041 172 172 172
14.625000000000 11.125000000000 49.018997192383 200 200 200
14.625000000000 11.125000000000 48.961997985840 204 204 204
14.687500000000 11.125000000000 48.896999359131 179 179 179
13.875000000000 11.187500000000 49.034000396729 225 225 225
13.875000000000 11.187500000000 48.989997863770 207 207 207
13.875000000000 11.187500000000 48.944000244141 206 206 206
13.875000000000 11.187500000000 48.892997741699 209 209 209
14.250000000000 11.062500000000 49.201999664307 43 43 43
14.375000000000 11.000000000000 49.113998413086 177 177 177
14.125000000000 11.000000000000 49.071998596191 208 208 208
14.000000000000 11.000000000000 49.056999206543 155 155 155
13.875000000000 11.000000000000 49.041000366211 166 166 166
13.875000000000 11.000000000000 48.991996765137 189 189 189
13.875000000000 11.000000000000 48.944000244141 173 173 173
13.875000000000 11.000000000000 48.897998809814 178 178 178
14.375000000000 10.937500000000 49.233997344971 122 122 122
14.125000000000 10.875000000000 49.229999542236 132 132 132
14.062500000000 10.875000000000 49.188999176025 173 173 173
14.062500000000 10.875000000000 49.141998291016 171 171 171
14.062500000000 10.875000000000 49.093997955322 170 170 170
14.000000000000 10.937500000000 49.058998107910 156 156 156
13.875000000000 10.875000000000 49.038997650146 174 174 174
13.875000000000 10.937500000000 48.991996765137 196 196 196
13.875000000000 10.875000000000 48.942996978760 161 161 161
13.875000000000 10.875000000000 48.893997192383 188 188 188
14.062500000000 10.875000000000 48.793998718262 171 171 171
14.062500000000 10.875000000000 48.738998413086 165 165 165
14.187500000000 10.875000000000 48.649997711182 104 104 104
14.187500000000 10.875000000000 48.596996307373 96 96 96
14.187500000000 10.875000000000 48.539997100830 91 91 91
14.187500000000 10.875000000000 48.488998413086 99 99 99
14.187500000000 10.875000000000 48.432998657227 99 99 99
14.187500000000 10.875000000000 48.379997253418 108 108 108
14.187500000000 10.875000000000 48.322998046875 117 117 117
14.250000000000 10.750000000000 49.242996215820 141 141 141
14.062500000000 10.812500000000 49.229999542236 129 129 129
14.062500000000 10.750000000000 49.187000274658 174 174 174
14.062500000000 10.750000000000 49.139999389648 165 165 165
14.062500000000 10.750000000000 49.091999053955 170 170 170
13.937500000000 10.750000000000 49.067996978760 157 157 157
13.875000000000 10.812500000000 49.034996032715 170 170 170
13.875000000000 10.812500000000 48.987998962402 187 187 187
13.875000000000 10.812500000000 48.939998626709 171 171 171
13.875000000000 10.750000000000 48.888996124268 186 186 186
14.062500000000 10.750000000000 48.791000366211 176 176 176
14.062500000000 10.750000000000 48.738998413086 173 173 173
14.125000000000 10.750000000000 48.654998779297 123 123 123
14.125000000000 10.750000000000 48.600997924805 129 129 129
14.125000000000 10.750000000000 48.548999786377 122 122 122
14.125000000000 10.812500000000 48.496997833252 122 122 122
14.125000000000 10.750000000000 48.439998626709 125 125 125
14.125000000000 10.750000000000 48.385997772217 128 128 128
14.125000000000 10.750000000000 48.327999114990 143 143 143
14.062500000000 10.750000000000 48.312000274658 165 165 165
14.250000000000 10.687500000000 49.235996246338 120 120 120
14.062500000000 10.625000000000 49.230998992920 148 148 148
14.062500000000 10.687500000000 49.187999725342 188 188 188
14.062500000000 10.687500000000 49.140998840332 190 190 190
14.062500000000 10.687500000000 49.090999603271 182 182 182
14.000000000000 10.625000000000 49.066997528076 175 175 175
13.875000000000 10.625000000000 49.034000396729 161 161 161
13.875000000000 10.625000000000 48.986999511719 179 179 179
13.875000000000 10.625000000000 48.938999176025 165 165 165
14.000000000000 10.687500000000 48.879997253418 191 191 191
14.062500000000 10.625000000000 48.791000366211 174 174 174
14.062500000000 10.625000000000 48.737998962402 161 161 161
14.687500000000 10.500000000000 49.055000305176 131 131 131
14.562500000000 10.437500000000 49.019996643066 230 230 230
14.562500000000 10.437500000000 48.962997436523 230 230 230
14.625000000000 10.437500000000 48.905998229980 247 247 247
13.875000000000 10.562500000000 49.028999328613 231 231 231
13.937500000000 10.562500000000 48.979999542236 236 236 236
13.937500000000 10.562500000000 48.931999206543 234 234 234
14.562500000000 10.437500000000 49.021999359131 227 227 227
14.562500000000 10.437500000000 48.965000152588 233 233 233
14.625000000000 10.437500000000 48.904998779297 231 231 231
13.937500000000 10.375000000000 49.025997161865 227 227 227
13.937500000000 10.375000000000 48.977996826172 231 231 231
13.937500000000 10.375000000000 48.930000305176 232 232 232
14.562500000000 10.250000000000 49.025997161865 208 208 208
14.562500000000 10.250000000000 48.968997955322 228 228 228
14.562500000000 10.250000000000 48.909996032715 222 222 222
13.937500000000 10.250000000000 49.023998260498 225 225 225
13.937500000000 10.250000000000 48.978996276855 222 222 222
13.937500000000 10.250000000000 48.928997039795 228 228 228
14.562500000000 10.062500000000 49.027000427246 218 218 218
14.562500000000 10.062500000000 48.971996307373 238 238 238
14.125000000000 10.125000000000 49.027000427246 255 255 255
13.937500000000 10.125000000000 49.020996093750 234 234 234
13.937500000000 10.125000000000 48.974998474121 228 228 228
13.937500000000 10.125000000000 48.923000335693 225 225 225
14.500000000000 10.000000000000 49.032997131348 205 205 205
14.562500000000 10.000000000000 48.975997924805 228 228 228
14.062500000000 10.000000000000 49.036998748779 255 255 255
14.000000000000 10.000000000000 49.019996643066 222 222 222
14.000000000000 10.000000000000 48.970996856689 227 227 227
14.000000000000 10.000000000000 48.918998718262 231 231 231
14.500000000000 9.875000000000 49.034996032715 206 206 206
14.500000000000 9.875000000000 48.979999542236 230 230 230
14.000000000000 9.875000000000 49.049999237061 255 255 255
13.937500000000 9.812500000000 49.013996124268 232 232 232
13.937500000000 9.812500000000 48.965000152588 235 235 235
13.937500000000 9.812500000000 48.918998718262 215 215 215
14.500000000000 9.750000000000 49.035999298096 211 211 211
14.500000000000 9.750000000000 48.982997894287 227 227 227
14.000000000000 9.750000000000 49.058998107910 229 229 229
14.000000000000 9.812500000000 49.011997222900 227 227 227
14.000000000000 9.750000000000 48.960998535156 237 237 237
14.000000000000 9.812500000000 48.916000366211 201 201 201
14.500000000000 9.625000000000 49.041999816895 203 203 203
14.500000000000 9.625000000000 48.984996795654 228 228 228
14.000000000000 9.625000000000 49.053997039795 229 229 229
14.000000000000 9.562500000000 49.005996704102 226 226 226
14.000000000000 9.625000000000 48.958999633789 232 232 232
14.000000000000 9.625000000000 48.911998748779 161 161 161
14.500000000000 9.500000000000 49.041999816895 224 224 224
14.437500000000 9.437500000000 48.991996765137 159 159 159
14.062500000000 9.437500000000 49.050998687744 240 240 240
14.000000000000 9.500000000000 49.005996704102 227 227 227
14.000000000000 9.500000000000 48.953998565674 234 234 234
14.000000000000 9.500000000000 48.906997680664 87 87 87
14.500000000000 9.375000000000 49.044998168945 229 229 229
14.500000000000 9.375000000000 48.993999481201 229 229 229
14.062500000000 9.437500000000 49.049999237061 232 232 232
14.062500000000 9.437500000000 49.001998901367 228 228 228
14.062500000000 9.437500000000 48.951000213623 234 234 234
14.437500000000 9.187500000000 49.048999786377 230 230 230
14.437500000000 9.187500000000 48.995998382568 226 226 226
14.062500000000 9.250000000000 49.045997619629 236 236 236
14.062500000000 9.250000000000 48.999996185303 221 221 221
14.062500000000 9.250000000000 48.949996948242 230 230 230
14.500000000000 9.125000000000 49.049999237061 235 235 235
14.437500000000 9.125000000000 48.999996185303 227 227 227
14.062500000000 9.125000000000 49.042999267578 227 227 227
14.062500000000 9.125000000000 48.994998931885 226 226 226
14.062500000000 9.125000000000 48.941997528076 237 237 237
14.500000000000 9.000000000000 49.052997589111 233 233 233
14.500000000000 9.000000000000 49.002998352051 230 230 230
14.062500000000 9.000000000000 49.039997100830 227 227 227
14.062500000000 9.000000000000 48.988998413086 232 232 232
14.062500000000 9.000000000000 48.941997528076 226 226 226
14.375000000000 8.812500000000 49.055000305176 229 229 229
14.375000000000 8.875000000000 49.013996124268 235 235 235
14.125000000000 8.875000000000 49.032997131348 239 239 239
14.125000000000 8.875000000000 48.985996246338 232 232 232
14.125000000000 8.875000000000 48.937999725342 226 226 226
14.375000000000 8.750000000000 49.057998657227 234 234 234
14.375000000000 8.687500000000 49.027000427246 248 248 248
14.062500000000 8.687500000000 49.034000396729 227 227 227
14.125000000000 8.687500000000 48.979999542236 229 229 229
14.125000000000 8.687500000000 48.928997039795 228 228 228
14.437500000000 8.625000000000 49.059997558594 221 221 221
14.250000000000 8.562500000000 49.043998718262 255 255 255
14.125000000000 8.625000000000 49.027000427246 236 236 236
14.125000000000 8.625000000000 48.977996826172 230 230 230
14.125000000000 8.625000000000 48.930000305176 201 201 201
14.375000000000 8.437500000000 49.063999176025 216 216 216
14.187500000000 8.500000000000 49.060997009277 233 233 233
14.125000000000 8.437500000000 49.024997711182 234 234 234
14.125000000000 8.437500000000 48.975997924805 229 229 229
14.062500000000 8.500000000000 48.930999755859 163 163 163
14.375000000000 8.375000000000 49.069000244141 211 211 211
14.187500000000 8.312500000000 49.066997528076 221 221 221
14.187500000000 8.312500000000 49.019996643066 233 233 233
14.187500000000 8.312500000000 48.971996307373 225 225 225
14.125000000000 8.375000000000 48.924999237061 117 117 117
14.250000000000 8.187500000000 49.250999450684 31 31 31
14.250000000000 8.187500000000 49.204998016357 169 169 169
14.250000000000 8.187500000000 49.153999328613 160 160 160
14.250000000000 8.187500000000 49.103996276855 162 162 162
14.187500000000 8.250000000000 49.069999694824 215 215 215
14.187500000000 8.250000000000 49.019996643066 235 235 235
14.187500000000 8.250000000000 48.969997406006 230 230 230
14.187500000000 8.250000000000 48.923000335693 47 47 47
14.375000000000 8.062500000000 49.073997497559 184 184 184
14.187500000000 8.125000000000 49.064998626709 240 240 240
14.187500000000 8.125000000000 49.015998840332 242 242 242
14.187500000000 8.125000000000 48.967998504639 229 229 229
14.375000000000 8.000000000000 49.076000213623 157 157 157
14.187500000000 7.937500000000 49.062000274658 239 239 239
14.187500000000 7.937500000000 49.014999389648 229 229 229
14.187500000000 7.937500000000 48.965999603271 226 226 226
14.375000000000 7.875000000000 49.071998596191 161 161 161
14.187500000000 7.812500000000 49.062999725342 227 227 227
14.187500000000 7.812500000000 49.012996673584 229 229 229
14.187500000000 7.812500000000 48.961997985840 231 231 231
14.375000000000 7.687500000000 49.077999114990 118 118 118
14.187500000000 7.687500000000 49.062000274658 227 227 227
14.187500000000 7.687500000000 49.011997222900 226 226 226
14.187500000000 7.687500000000 48.958999633789 230 230 230
14.375000000000 7.562500000000 49.081996917725 125 125 125
14.187500000000 7.562500000000 49.057998657227 233 233 233
14.187500000000 7.562500000000 49.010997772217 235 235 235
14.187500000000 7.562500000000 48.956996917725 226 226 226
14.312500000000 7.437500000000 49.083000183105 102 102 102
14.187500000000 7.437500000000 49.055999755859 236 236 236
14.187500000000 7.437500000000 49.005996704102 228 228 228
14.187500000000 7.437500000000 48.954998016357 233 233 233
14.312500000000 7.375000000000 49.084999084473 135 135 135
14.187500000000 7.375000000000 49.056999206543 232 232 232
14.187500000000 7.375000000000 49.004997253418 234 234 234
14.250000000000 7.312500000000 48.951999664307 228 228 228
14.312500000000 7.187500000000 49.085998535156 145 145 145
14.187500000000 7.187500000000 49.055999755859 224 224 224
14.250000000000 7.187500000000 49.003997802734 223 223 223
14.250000000000 7.187500000000 48.948997497559 224 224 224
14.250000000000 7.062500000000 49.088996887207 146 146 146
14.250000000000 7.062500000000 49.052997589111 211 211 211
14.250000000000 7.062500000000 48.999996185303 214 214 214
14.250000000000 7.062500000000 48.948997497559 203 203 203
14.250000000000 7.062500000000 49.083999633789 85 85 85
14.187500000000 7.062500000000 49.042999267578 204 204 204
14.187500000000 7.062500000000 48.982997894287 208 208 208
14.187500000000 7.062500000000 48.921997070313 70 70 70
14.250000000000 7.125000000000 49.078998565674 129 129 129
14.187500000000 7.187500000000 49.042999267578 207 207 207
14.187500000000 7.187500000000 48.981998443604 207 207 207
14.187500000000 7.187500000000 48.924999237061 84 84 84
14.312500000000 7.312500000000 49.076999664307 123 123 123
14.187500000000 7.312500000000 49.043998718262 209 209 209
14.187500000000 7.312500000000 48.984996795654 206 206 206
14.187500000000 7.312500000000 48.930000305176 104 104 104
14.312500000000 7.375000000000 49.074996948242 130 130 130
14.187500000000 7.437500000000 49.044998168945 205 205 205
14.187500000000 7.437500000000 48.985996246338 209 209 209
14.187500000000 7.437500000000 48.924999237061 128 128 128
14.312500000000 7.500000000000 49.070999145508 148 148 148
14.187500000000 7.500000000000 49.046997070313 207 207 207
14.187500000000 7.500000000000 48.987998962402 208 208 208
14.187500000000 7.500000000000 48.930000305176 158 158 158
14.312500000000 7.562500000000 49.070999145508 151 151 151
14.250000000000 7.687500000000 49.049999237061 206 206 206
14.250000000000 7.687500000000 48.991996765137 206 206 206
14.250000000000 7.687500000000 48.930000305176 177 177 177
14.312500000000 7.687500000000 49.069000244141 158 158 158
14.125000000000 7.812500000000 49.050998687744 206 206 206
14.125000000000 7.812500000000 48.993999481201 207 207 207
14.125000000000 7.812500000000 48.934997558594 196 196 196
14.375000000000 7.812500000000 49.067996978760 166 166 166
14.250000000000 7.937500000000 49.053997039795 207 207 207
14.250000000000 7.937500000000 48.994998931885 205 205 205
14.250000000000 7.937500000000 48.934997558594 206 206 206
14.312500000000 7.937500000000 49.064998626709 167 167 167
14.125000000000 8.000000000000 49.055999755859 205 205 205
14.125000000000 8.062500000000 48.998996734619 208 208 208
14.125000000000 8.062500000000 48.939998626709 209 209 209
14.375000000000 8.062500000000 49.063999176025 193 193 193
14.125000000000 8.125000000000 49.058998107910 203 203 203
14.125000000000 8.125000000000 49.001998901367 204 204 204
14.125000000000 8.125000000000 48.939998626709 210 210 210
14.187500000000 8.187500000000 49.211997985840 119 119 119
14.187500000000 8.187500000000 49.154998779297 120 120 120
14.187500000000 8.187500000000 49.098999023438 118 118 118
14.125000000000 8.250000000000 49.062000274658 192 192 192
14.125000000000 8.250000000000 49.002998352051 209 209 209
14.125000000000 8.250000000000 48.942996978760 212 212 212
14.250000000000 8.250000000000 49.195999145508 88 88 88
14.250000000000 8.312500000000 49.144996643066 31 31 31
14.250000000000 8.250000000000 49.077999114990 60 60 60
14.125000000000 8.375000000000 49.057998657227 193 193 193
14.125000000000 8.375000000000 49.002998352051 214 214 214
14.125000000000 8.375000000000 48.945999145508 209 209 209
14.375000000000 8.375000000000 49.049999237061 198 198 198
14.125000000000 8.562500000000 49.059997558594 203 203 203
14.125000000000 8.562500000000 49.006996154785 207 207 207
14.125000000000 8.562500000000 48.948997497559 209 209 209
14.375000000000 8.437500000000 49.045997619629 209 209 209
14.187500000000 8.625000000000 49.052997589111 208 208 208
14.125000000000 8.687500000000 49.009998321533 204 204 204
14.125000000000 8.687500000000 48.951999664307 208 208 208
14.375000000000 8.562500000000 49.041999816895 210 210 210
14.250000000000 8.687500000000 49.036998748779 208 208 208
14.062500000000 8.687500000000 49.014999389648 208 208 208
14.062500000000 8.687500000000 48.954998016357 209 209 209
14.437500000000 8.687500000000 49.039997100830 197 197 197
14.375000000000 8.687500000000 48.989997863770 207 207 207
14.125000000000 8.875000000000 49.019996643066 205 205 205
14.125000000000 8.875000000000 48.963996887207 207 207 207
14.437500000000 8.750000000000 49.038997650146 199 199 199
14.375000000000 8.812500000000 48.983997344971 213 213 213
14.062500000000 9.000000000000 49.023998260498 205 205 205
14.062500000000 9.000000000000 48.965999603271 205 205 205
14.062500000000 9.000000000000 48.912998199463 128 128 128
14.375000000000 8.875000000000 49.035999298096 202 202 202
14.375000000000 8.875000000000 48.974998474121 213 213 213
14.062500000000 9.062500000000 49.029998779297 206 206 206
14.062500000000 9.062500000000 48.972999572754 207 207 207
14.062500000000 9.062500000000 48.916999816895 174 174 174
14.437500000000 9.000000000000 49.034000396729 194 194 194
14.437500000000 9.000000000000 48.971996307373 211 211 211
14.062500000000 9.250000000000 49.030998229980 206 206 206
14.062500000000 9.250000000000 48.978996276855 206 206 206
14.062500000000 9.250000000000 48.920997619629 202 202 202
14.375000000000 9.125000000000 49.032997131348 200 200 200
14.437500000000 9.125000000000 48.969997406006 212 212 212
14.000000000000 9.375000000000 49.041000366211 207 207 207
14.000000000000 9.375000000000 48.984996795654 204 204 204
14.000000000000 9.375000000000 48.926998138428 208 208 208
14.437500000000 9.250000000000 49.031997680664 195 195 195
14.437500000000 9.187500000000 48.965999603271 212 212 212
14.000000000000 9.500000000000 49.042999267578 206 206 206
14.000000000000 9.500000000000 48.987998962402 207 207 207
14.000000000000 9.500000000000 48.931999206543 209 209 209
14.437500000000 9.312500000000 49.027000427246 193 193 193
14.437500000000 9.312500000000 48.965000152588 211 211 211
14.000000000000 9.562500000000 49.048000335693 207 207 207
14.000000000000 9.562500000000 48.989997863770 206 206 206
14.000000000000 9.562500000000 48.932998657227 208 208 208
14.500000000000 9.437500000000 49.021999359131 172 172 172
14.437500000000 9.437500000000 48.978996276855 101 101 101
14.000000000000 9.687500000000 49.048999786377 206 206 206
14.000000000000 9.687500000000 48.993999481201 205 205 205
14.000000000000 9.687500000000 48.938999176025 209 209 209
14.500000000000 9.500000000000 49.021999359131 184 184 184
14.500000000000 9.500000000000 48.958999633789 173 173 173
14.000000000000 9.812500000000 49.048999786377 214 214 214
14.000000000000 9.812500000000 48.998996734619 205 205 205
14.000000000000 9.812500000000 48.944000244141 208 208 208
14.500000000000 9.687500000000 49.017997741699 205 205 205
14.500000000000 9.687500000000 48.953998565674 216 216 216
14.000000000000 9.937500000000 49.055999755859 188 188 188
13.937500000000 9.937500000000 49.002998352051 205 205 205
13.937500000000 9.937500000000 48.947998046875 205 205 205
13.937500000000 9.937500000000 48.892997741699 44 44 44
14.500000000000 9.812500000000 49.014999389648 197 197 197
14.500000000000 9.812500000000 48.949996948242 214 214 214
13.937500000000 10.125000000000 49.062999725342 155 155 155
13.937500000000 10.125000000000 49.010997772217 207 207 207
13.937500000000 10.125000000000 48.951999664307 207 207 207
13.937500000000 10.125000000000 48.893997192383 139 139 139
14.500000000000 9.875000000000 49.011997222900 199 199 199
14.500000000000 9.875000000000 48.949996948242 216 216 216
13.937500000000 10.250000000000 49.063999176025 119 119 119
13.937500000000 10.250000000000 49.012996673584 205 205 205
13.937500000000 10.250000000000 48.954998016357 206 206 206
13.937500000000 10.250000000000 48.902000427246 181 181 181
14.562500000000 10.000000000000 49.012996673584 204 204 204
14.562500000000 9.937500000000 48.946998596191 216 216 216
13.875000000000 10.312500000000 49.018997192383 205 205 205
13.875000000000 10.312500000000 48.962997436523 208 208 208
13.875000000000 10.312500000000 48.907997131348 204 204 204
14.500000000000 10.062500000000 49.011997222900 208 208 208
14.562500000000 10.062500000000 48.945999145508 214 214 214
13.937500000000 10.437500000000 49.023998260498 205 205 205
13.937500000000 10.437500000000 48.966999053955 208 208 208
13.937500000000 10.437500000000 48.910999298096 209 209 209
14.562500000000 10.187500000000 49.008998870850 205 205 205
14.562500000000 10.187500000000 48.946998596191 216 216 216
13.875000000000 10.562500000000 49.029998779297 201 201 201
13.875000000000 10.562500000000 48.971996307373 206 206 206
13.875000000000 10.562500000000 48.917999267578 206 206 206
14.500000000000 10.312500000000 49.010997772217 191 191 191
14.500000000000 10.250000000000 48.944000244141 211 211 211
14.000000000000 10.687500000000 49.069999694824 96 96 96
13.937500000000 10.687500000000 49.028999328613 140 140 140
13.937500000000 10.687500000000 48.976997375488 144 144 144
13.937500000000 10.687500000000 48.919998168945 143 143 143
14.187500000000 10.625000000000 49.227996826172 66 66 66
14.000000000000 10.687500000000 49.206996917725 144 144 144
14.062500000000 10.750000000000 49.150997161865 147 147 147
14.062500000000 10.750000000000 49.093997955322 153 153 153
14.000000000000 10.750000000000 49.059997558594 147 147 147
13.875000000000 10.812500000000 49.032997131348 155 155 155
13.875000000000 10.812500000000 48.978996276855 131 131 131
13.875000000000 10.812500000000 48.924999237061 137 137 137
14.000000000000 10.687500000000 48.821998596191 164 164 164
14.125000000000 10.750000000000 48.746997833252 146 146 146
14.375000000000 10.625000000000 49.242996215820 33 33 33
14.125000000000 10.750000000000 49.227996826172 115 115 115
14.000000000000 10.875000000000 49.208000183105 143 143 143
14.000000000000 10.875000000000 49.150997161865 153 153 153
14.000000000000 10.875000000000 49.094997406006 150 150 150
14.000000000000 10.875000000000 49.044998168945 134 134 134
13.875000000000 10.937500000000 49.034996032715 151 151 151
13.875000000000 11.000000000000 48.980998992920 140 140 140
13.875000000000 11.000000000000 48.926998138428 139 139 139
14.000000000000 10.937500000000 48.835998535156 169 169 169
14.000000000000 10.875000000000 48.746997833252 144 144 144
14.125000000000 10.750000000000 48.647998809814 96 96 96
14.125000000000 10.812500000000 48.592998504639 96 96 96
14.125000000000 10.750000000000 48.525997161865 92 92 92
14.125000000000 10.812500000000 48.465000152588 95 95 95
14.125000000000 10.812500000000 48.402996063232 100 100 100
14.125000000000 10.750000000000 48.335998535156 103 103 103
14.375000000000 10.750000000000 49.249996185303 94 94 94
14.250000000000 10.875000000000 49.227996826172 102 102 102
14.062500000000 10.875000000000 49.205997467041 143 143 143
14.062500000000 10.875000000000 49.150997161865 152 152 152
14.000000000000 10.875000000000 49.094997406006 141 141 141
14.000000000000 10.937500000000 49.046997070313 136 136 136
13.875000000000 11.000000000000 49.037998199463 170 170 170
13.875000000000 11.000000000000 48.984996795654 176 176 176
13.875000000000 11.000000000000 48.927997589111 172 172 172
13.937500000000 11.000000000000 48.855998992920 163 163 163
14.062500000000 10.875000000000 48.745998382568 136 136 136
14.187500000000 10.875000000000 48.642997741699 111 111 111
14.187500000000 10.875000000000 48.584999084473 109 109 109
14.187500000000 10.875000000000 48.520996093750 102 102 102
14.187500000000 10.875000000000 48.463996887207 106 106 106
14.187500000000 10.875000000000 48.396999359131 113 113 113
14.187500000000 10.875000000000 48.335998535156 125 125 125
14.437500000000 10.875000000000 49.233997344971 76 76 76
14.187500000000 10.937500000000 49.223999023438 111 111 111
14.125000000000 11.000000000000 49.189998626709 112 112 112
14.125000000000 11.000000000000 49.135997772217 118 118 118
14.125000000000 11.000000000000 49.078998565674 113 113 113
14.062500000000 11.062500000000 49.032997131348 123 123 123
13.875000000000 11.125000000000 49.035999298096 202 202 202
13.875000000000 11.125000000000 48.979999542236 188 188 188
13.875000000000 11.125000000000 48.924999237061 184 184 184
13.937500000000 11.062500000000 48.857997894287 166 166 166
14.250000000000 10.937500000000 48.602996826172 33 33 33
14.437500000000 10.875000000000 48.425998687744 184 184 184
14.437500000000 11.000000000000 49.231998443604 69 69 69
14.312500000000 11.062500000000 49.199996948242 122 122 122
14.375000000000 11.062500000000 49.136997222900 114 114 114
14.312500000000 11.062500000000 49.081996917725 117 117 117
14.375000000000 11.062500000000 49.020996093750 122 122 122
14.250000000000 11.125000000000 48.988998413086 121 121 121
13.937500000000 11.312500000000 49.031997680664 190 190 190
13.937500000000 11.312500000000 48.976997375488 182 182 182
13.937500000000 11.312500000000 48.921997070313 179 179 179
13.937500000000 11.312500000000 48.863998413086 122 122 122
14.562500000000 11.000000000000 49.070999145508 162 162 162
14.625000000000 10.937500000000 49.000999450684 182 182 182
14.625000000000 10.937500000000 48.937999725342 181 181 181
14.625000000000 10.937500000000 48.867996215820 135 135 135
13.937500000000 11.375000000000 49.032997131348 186 186 186
13.937500000000 11.375000000000 48.979999542236 187 187 187
13.937500000000 11.375000000000 48.923000335693 183 183 183
13.937500000000 11.375000000000 48.863998413086 161 161 161
14.500000000000 11.062500000000 49.069999694824 162 162 162
14.562500000000 11.062500000000 48.992996215820 168 168 168
14.562500000000 11.062500000000 48.926998138428 165 165 165
13.937500000000 11.500000000000 49.086997985840 191 191 191
13.937500000000 11.500000000000 49.035999298096 184 184 184
13.937500000000 11.500000000000 48.978996276855 152 152 152
13.875000000000 11.500000000000 48.928997039795 154 154 154
13.937500000000 11.500000000000 48.867996215820 169 169 169
13.937500000000 11.500000000000 48.808998107910 137 137 137
14.625000000000 11.187500000000 49.069999694824 158 158 158
14.625000000000 11.187500000000 48.994998931885 181 181 181
14.625000000000 11.187500000000 48.930000305176 176 176 176
13.875000000000 11.562500000000 49.079998016357 127 127 127
13.875000000000 11.625000000000 49.035999298096 176 176 176
13.875000000000 11.625000000000 48.979999542236 164 164 164
13.875000000000 11.625000000000 48.923999786377 154 154 154
13.875000000000 11.625000000000 48.866996765137 156 156 156
14.562500000000 11.312500000000 49.067996978760 162 162 162
14.562500000000 11.312500000000 48.998996734619 170 170 170
14.562500000000 11.250000000000 48.932998657227 185 185 185
14.562500000000 11.312500000000 48.875999450684 177 177 177
14.625000000000 11.437500000000 49.069999694824 189 189 189
14.625000000000 11.437500000000 49.007999420166 183 183 183
14.625000000000 11.437500000000 48.942996978760 190 190 190
14.625000000000 11.437500000000 48.878997802734 194 194 194
14.562500000000 11.562500000000 49.126998901367 124 124 124
14.562500000000 11.562500000000 49.069999694824 197 197 197
14.562500000000 11.562500000000 49.007999420166 192 192 192
14.562500000000 11.562500000000 48.944999694824 192 192 192
14.562500000000 11.562500000000 48.880996704102 187 187 187
14.687500000000 11.562500000000 49.035999298096 160 160 160
14.562500000000 11.625000000000 49.003997802734 119 119 119
14.562500000000 11.625000000000 48.938999176025 117 117 117
14.250000000000 7.062500000000 49.070999145508 194 194 194
14.250000000000 7.062500000000 49.025997161865 216 216 216
14.250000000000 7.062500000000 48.970996856689 218 218 218
14.250000000000 7.062500000000 48.919998168945 71 71 71
14.250000000000 7.125000000000 49.069000244141 191 191 191
14.250000000000 7.187500000000 49.023998260498 228 228 228
14.250000000000 7.187500000000 48.970996856689 225 225 225
14.250000000000 7.187500000000 48.923000335693 106 106 106
14.250000000000 7.312500000000 49.065998077393 185 185 185
14.250000000000 7.250000000000 49.021999359131 228 228 228
14.250000000000 7.250000000000 48.970996856689 233 233 233
14.250000000000 7.250000000000 48.919998168945 99 99 99
14.250000000000 7.437500000000 49.065998077393 178 178 178
14.250000000000 7.437500000000 49.020996093750 229 229 229
14.250000000000 7.437500000000 48.967998504639 225 225 225
14.250000000000 7.437500000000 48.921997070313 116 116 116
14.250000000000 7.500000000000 49.052997589111 218 218 218
14.250000000000 7.500000000000 49.022998809814 231 231 231
14.250000000000 7.500000000000 48.971996307373 223 223 223
14.250000000000 7.500000000000 48.921997070313 128 128 128
14.250000000000 7.625000000000 49.053997039795 220 220 220
14.187500000000 7.625000000000 49.022998809814 227 227 227
14.187500000000 7.625000000000 48.971996307373 221 221 221
14.187500000000 7.625000000000 48.919998168945 131 131 131
14.312500000000 7.687500000000 49.046997070313 224 224 224
14.187500000000 7.812500000000 49.022998809814 225 225 225
14.187500000000 7.812500000000 48.972999572754 222 222 222
14.187500000000 7.812500000000 48.923000335693 159 159 159
14.312500000000 7.812500000000 49.041999816895 226 226 226
14.187500000000 7.812500000000 49.022998809814 224 224 224
14.187500000000 7.812500000000 48.974998474121 223 223 223
14.187500000000 7.812500000000 48.921997070313 184 184 184
14.375000000000 8.000000000000 49.037998199463 234 234 234
14.187500000000 7.937500000000 49.024997711182 230 230 230
14.187500000000 7.937500000000 48.976997375488 219 219 219
14.187500000000 7.937500000000 48.925998687744 202 202 202
14.375000000000 8.062500000000 49.031997680664 223 223 223
14.187500000000 8.125000000000 49.027000427246 230 230 230
14.187500000000 8.125000000000 48.977996826172 225 225 225
14.187500000000 8.125000000000 48.923999786377 225 225 225
14.250000000000 8.187500000000 49.215000152588 172 172 172
14.250000000000 8.187500000000 49.162998199463 164 164 164
14.250000000000 8.187500000000 49.115997314453 170 170 170
14.375000000000 8.187500000000 49.044998168945 195 195 195
14.187500000000 8.187500000000 49.027996063232 237 237 237
14.187500000000 8.250000000000 48.979999542236 226 226 226
14.187500000000 8.250000000000 48.930000305176 221 221 221
14.250000000000 8.312500000000 49.199996948242 42 42 42
14.250000000000 8.312500000000 49.164997100830 147 147 147
14.250000000000 8.312500000000 49.114997863770 147 147 147
14.312500000000 8.312500000000 49.034000396729 186 186 186
14.125000000000 8.250000000000 49.030998229980 230 230 230
14.125000000000 8.250000000000 48.982997894287 223 223 223
14.125000000000 8.250000000000 48.930000305176 226 226 226
14.375000000000 8.437500000000 49.023998260498 217 217 217
14.125000000000 8.437500000000 49.035999298096 222 222 222
14.125000000000 8.437500000000 48.982997894287 224 224 224
14.125000000000 8.437500000000 48.931999206543 232 232 232
14.437500000000 8.562500000000 49.063999176025 34 34 34
14.437500000000 8.562500000000 49.016998291016 210 210 210
14.125000000000 8.562500000000 49.034000396729 222 222 222
14.125000000000 8.562500000000 48.984996795654 223 223 223
14.125000000000 8.562500000000 48.931999206543 229 229 229
14.437500000000 8.625000000000 49.067996978760 112 112 112
14.437500000000 8.625000000000 49.013996124268 228 228 228
14.125000000000 8.687500000000 49.034996032715 222 222 222
14.125000000000 8.687500000000 48.986999511719 222 222 222
14.125000000000 8.687500000000 48.930999755859 236 236 236
14.437500000000 8.750000000000 49.059997558594 145 145 145
