13.375000000000 7.687500000000 55.229999542236 133 133 133
13.125000000000 7.937500000000 53.882999420166 45 45 45
10.000000000000 9.812500000000 53.757999420166 254 254 254
11.437500000000 9.000000000000 54.569000244141 114 114 114
12.250000000000 8.562500000000 55.528999328613 166 166 166
13.375000000000 7.812500000000 55.218997955322 130 130 130
13.125000000000 8.000000000000 53.890998840332 47 47 47
10.062500000000 10.000000000000 53.753997802734 254 254 254
11.437500000000 9.187500000000 54.551998138428 89 89 89
12.250000000000 8.687500000000 55.531997680664 151 151 151
13.375000000000 8.000000000000 55.216999053955 129 129 129
10.000000000000 10.125000000000 53.748996734619 39 39 39
10.062500000000 10.062500000000 53.737998962402 253 253 253
12.250000000000 8.812500000000 55.530998229980 158 158 158
13.437500000000 8.125000000000 55.221996307373 133 133 133
13.125000000000 8.312500000000 53.878997802734 34 34 34
10.000000000000 10.312500000000 53.760997772217 40 40 40
10.062500000000 10.250000000000 53.742996215820 224 224 224
12.187500000000 8.937500000000 55.524997711182 151 151 151
13.437500000000 8.312500000000 55.218997955322 130 130 130
13.125000000000 8.437500000000 53.898998260498 30 30 30
10.000000000000 10.437500000000 53.760997772217 75 75 75
10.062500000000 10.375000000000 53.752998352051 198 198 198
11.375000000000 9.625000000000 54.557998657227 44 44 44
12.250000000000 9.062500000000 55.534000396729 158 158 158
13.375000000000 8.437500000000 55.215000152588 136 136 136
10.000000000000 10.500000000000 53.744998931885 110 110 110
10.062500000000 10.500000000000 53.777000427246 119 119 119
11.437500000000 9.750000000000 54.557998657227 94 94 94
12.250000000000 9.250000000000 55.543998718262 146 146 146
13.437500000000 8.562500000000 55.215000152588 128 128 128
10.000000000000 10.687500000000 53.755996704102 139 139 139
10.062500000000 10.687500000000 53.769996643066 66 66 66
11.375000000000 9.812500000000 54.571998596191 107 107 107
12.250000000000 9.375000000000 55.520996093750 132 132 132
13.437500000000 8.687500000000 55.213996887207 133 133 133
10.062500000000 10.812500000000 53.737998962402 190 190 190
11.375000000000 10.000000000000 54.553997039795 82 82 82
12.250000000000 9.500000000000 55.524997711182 140 140 140
13.375000000000 8.812500000000 55.206996917725 131 131 131
10.000000000000 10.937500000000 53.752998352051 215 215 215
12.250000000000 9.687500000000 55.524997711182 125 125 125
13.375000000000 8.937500000000 55.213996887207 127 127 127
10.000000000000 11.125000000000 53.749996185303 241 241 241
12.250000000000 9.750000000000 55.525997161865 126 126 126
13.375000000000 9.125000000000 55.204998016357 125 125 125
10.062500000000 11.250000000000 53.752998352051 241 241 241
11.375000000000 10.437500000000 54.555999755859 72 72 72
12.250000000000 9.937500000000 55.529998779297 113 113 113
13.375000000000 9.250000000000 55.206996917725 124 124 124
10.062500000000 11.437500000000 53.752998352051 254 254 254
11.375000000000 10.562500000000 54.557998657227 105 105 105
12.250000000000 10.062500000000 55.531997680664 126 126 126
13.375000000000 9.375000000000 55.203998565674 120 120 120
10.062500000000 11.562500000000 53.741996765137 249 249 249
11.375000000000 10.750000000000 54.563999176025 112 112 112
12.250000000000 10.187500000000 55.527000427246 134 134 134
13.375000000000 9.562500000000 55.209999084473 129 129 129
10.062500000000 11.625000000000 53.747997283936 229 229 229
11.375000000000 10.875000000000 54.562999725342 72 72 72
12.250000000000 10.375000000000 55.522998809814 99 99 99
13.375000000000 9.687500000000 55.206996917725 130 130 130
10.000000000000 11.812500000000 53.744998931885 234 234 234
12.250000000000 10.500000000000 55.527000427246 102 102 102
13.437500000000 9.812500000000 55.203998565674 125 125 125
10.000000000000 11.937500000000 53.740997314453 218 218 218
12.187500000000 10.562500000000 55.537998199463 116 116 116
13.375000000000 9.937500000000 55.211997985840 128 128 128
10.000000000000 12.062500000000 53.735996246338 198 198 198
11.312500000000 11.312500000000 54.551998138428 47 47 47
12.250000000000 10.812500000000 55.531997680664 122 122 122
13.375000000000 10.062500000000 55.210998535156 131 131 131
13.125000000000 10.250000000000 53.820999145508 51 51 51
10.000000000000 12.250000000000 53.718997955322 49 49 49
10.000000000000 12.250000000000 53.728996276855 183 183 183
11.312500000000 11.437500000000 54.549999237061 99 99 99
12.250000000000 10.875000000000 55.527000427246 108 108 108
13.437500000000 10.250000000000 55.202999114990 124 124 124
13.125000000000 10.375000000000 53.824996948242 65 65 65
10.000000000000 12.375000000000 53.732997894287 61 61 61
10.000000000000 12.375000000000 53.732997894287 144 144 144
11.250000000000 11.625000000000 54.550998687744 114 114 114
12.250000000000 11.062500000000 55.539997100830 118 118 118
13.437500000000 10.375000000000 55.209999084473 132 132 132
13.125000000000 10.500000000000 53.817996978760 83 83 83
10.000000000000 12.500000000000 53.733997344971 77 77 77
10.000000000000 12.437500000000 53.805999755859 115 115 115
11.250000000000 11.750000000000 54.548000335693 96 96 96
12.250000000000 11.187500000000 55.537998199463 100 100 100
13.437500000000 10.500000000000 55.216999053955 131 131 131
13.187500000000 10.687500000000 53.817996978760 85 85 85
10.000000000000 12.687500000000 53.746997833252 107 107 107
11.375000000000 11.937500000000 54.555999755859 70 70 70
12.250000000000 11.312500000000 55.534000396729 112 112 112
13.375000000000 10.687500000000 55.206996917725 131 131 131
13.187500000000 10.812500000000 53.828998565674 99 99 99
10.000000000000 12.812500000000 53.726997375488 140 140 140
12.250000000000 11.500000000000 55.522998809814 109 109 109
13.375000000000 10.812500000000 55.208000183105 135 135 135
13.125000000000 10.875000000000 53.824996948242 111 111 111
10.000000000000 12.937500000000 53.722999572754 177 177 177
12.250000000000 11.625000000000 55.517997741699 124 124 124
13.375000000000 10.937500000000 55.206996917725 129 129 129
13.187500000000 11.062500000000 53.813999176025 113 113 113
9.937500000000 13.000000000000 53.727996826172 222 222 222
11.250000000000 12.375000000000 54.553997039795 69 69 69
12.250000000000 11.687500000000 55.518997192383 111 111 111
13.375000000000 11.000000000000 55.201999664307 132 132 132
13.187500000000 11.187500000000 53.822998046875 126 126 126
10.000000000000 13.187500000000 53.725997924805 233 233 233
11.187500000000 12.437500000000 54.553997039795 109 109 109
12.250000000000 11.875000000000 55.529998779297 129 129 129
13.375000000000 11.187500000000 55.201999664307 131 131 131
13.187500000000 11.375000000000 53.826000213623 131 131 131
10.000000000000 13.375000000000 53.723999023438 238 238 238
11.250000000000 12.562500000000 54.542999267578 111 111 111
12.250000000000 12.000000000000 55.524997711182 123 123 123
13.375000000000 11.375000000000 55.208999633789 133 133 133
13.125000000000 11.500000000000 53.819000244141 141 141 141
9.937500000000 13.437500000000 53.726997375488 244 244 244
11.250000000000 12.687500000000 54.548999786377 94 94 94
12.187500000000 12.125000000000 55.520996093750 128 128 128
13.437500000000 11.500000000000 55.211997985840 133 133 133
13.125000000000 11.625000000000 53.816997528076 141 141 141
10.000000000000 13.625000000000 53.729999542236 250 250 250
11.250000000000 12.875000000000 54.530998229980 66 66 66
12.187500000000 12.312500000000 55.525997161865 142 142 142
13.375000000000 11.625000000000 55.211997985840 132 132 132
13.125000000000 11.812500000000 53.821998596191 147 147 147
10.000000000000 13.750000000000 53.723999023438 237 237 237
12.250000000000 12.437500000000 55.529998779297 145 145 145
13.437500000000 11.812500000000 55.215000152588 130 130 130
13.125000000000 11.937500000000 53.812000274658 148 148 148
10.000000000000 13.937500000000 53.725997924805 237 237 237
12.250000000000 12.625000000000 55.529998779297 154 154 154
13.437500000000 11.937500000000 55.211997985840 123 123 123
13.125000000000 12.000000000000 53.820999145508 151 151 151
10.000000000000 14.000000000000 53.715999603271 220 220 220
11.187500000000 13.312500000000 54.562000274658 50 50 50
12.250000000000 12.750000000000 55.529998779297 153 153 153
13.375000000000 12.000000000000 55.215000152588 128 128 128
13.125000000000 12.187500000000 53.819999694824 154 154 154
10.000000000000 14.125000000000 53.715999603271 226 226 226
11.187500000000 13.437500000000 54.541000366211 92 92 92
12.250000000000 12.875000000000 55.530998229980 167 167 167
13.375000000000 12.125000000000 55.202999114990 113 113 113
13.187500000000 12.312500000000 53.812000274658 153 153 153
10.000000000000 14.312500000000 53.716999053955 227 227 227
11.187500000000 13.562500000000 54.539997100830 117 117 117
12.250000000000 13.000000000000 55.531997680664 143 143 143
13.375000000000 12.312500000000 55.213996887207 124 124 124
13.125000000000 12.437500000000 53.819999694824 156 156 156
10.000000000000 14.500000000000 53.720996856689 232 232 232
11.187500000000 13.750000000000 54.555000305176 100 100 100
12.250000000000 13.125000000000 55.544998168945 139 139 139
13.375000000000 12.500000000000 55.215999603271 128 128 128
13.187500000000 12.625000000000 53.812999725342 155 155 155
10.000000000000 14.562500000000 53.724998474121 235 235 235
11.250000000000 13.875000000000 54.534996032715 78 78 78
12.250000000000 13.250000000000 55.541000366211 147 147 147
13.375000000000 12.562500000000 55.217998504639 121 121 121
13.187500000000 12.750000000000 53.816997528076 155 155 155
9.937500000000 14.750000000000 53.718997955322 234 234 234
12.250000000000 13.437500000000 55.539997100830 144 144 144
13.375000000000 12.750000000000 55.210998535156 126 126 126
13.125000000000 12.812500000000 53.813999176025 153 153 153
10.000000000000 14.875000000000 53.696998596191 30 30 30
10.000000000000 14.812500000000 53.715000152588 223 223 223
12.250000000000 13.562500000000 55.530998229980 147 147 147
13.375000000000 12.812500000000 55.213996887207 122 122 122
13.125000000000 13.000000000000 53.814998626709 152 152 152
9.937500000000 14.937500000000 53.706996917725 201 201 201
11.187500000000 14.312500000000 54.532997131348 60 60 60
12.250000000000 13.687500000000 55.543998718262 159 159 159
13.375000000000 12.937500000000 55.211997985840 122 122 122
13.125000000000 13.125000000000 53.812999725342 153 153 153
10.000000000000 15.187500000000 53.710998535156 49 49 49
10.000000000000 15.125000000000 53.701999664307 193 193 193
11.125000000000 14.437500000000 54.534996032715 93 93 93
12.187500000000 13.812500000000 55.539997100830 145 145 145
13.375000000000 13.125000000000 55.215000152588 107 107 107
13.125000000000 13.312500000000 53.812999725342 152 152 152
9.937500000000 15.312500000000 53.696998596191 50 50 50
10.000000000000 15.250000000000 53.688999176025 160 160 160
11.187500000000 14.625000000000 54.543998718262 108 108 108
12.250000000000 13.937500000000 55.536998748779 157 157 157
13.375000000000 13.250000000000 55.213996887207 107 107 107
13.125000000000 13.437500000000 53.815998077393 152 152 152
10.000000000000 15.437500000000 53.680999755859 61 61 61
10.000000000000 15.437500000000 53.688999176025 150 150 150
11.187500000000 14.687500000000 54.548999786377 111 111 111
12.250000000000 14.125000000000 55.545997619629 153 153 153
13.437500000000 13.437500000000 55.206996917725 106 106 106
13.125000000000 13.562500000000 53.819999694824 151 151 151
9.937500000000 15.562500000000 53.696998596191 70 70 70
10.000000000000 15.562500000000 53.744998931885 142 142 142
11.125000000000 14.812500000000 54.528999328613 79 79 79
12.187500000000 14.187500000000 55.543998718262 156 156 156
13.375000000000 13.562500000000 55.216999053955 95 95 95
13.125000000000 13.750000000000 53.816997528076 153 153 153
9.937500000000 15.687500000000 53.678997039795 88 88 88
10.000000000000 15.687500000000 53.759998321533 126 126 126
11.125000000000 15.000000000000 54.539997100830 42 42 42
12.250000000000 14.375000000000 55.541999816895 158 158 158
13.437500000000 13.687500000000 55.229999542236 109 109 109
13.187500000000 13.812500000000 53.819000244141 152 152 152
9.937500000000 15.875000000000 53.682998657227 108 108 108
10.000000000000 15.875000000000 53.803997039795 122 122 122
12.250000000000 14.500000000000 55.532997131348 162 162 162
13.437500000000 13.812500000000 55.229999542236 99 99 99
13.125000000000 13.937500000000 53.824996948242 156 156 156
9.937500000000 16.000000000000 53.689998626709 133 133 133
12.250000000000 14.625000000000 55.541000366211 150 150 150
13.375000000000 13.937500000000 55.216999053955 106 106 106
13.125000000000 14.125000000000 53.809997558594 152 152 152
9.937500000000 16.125000000000 53.677997589111 162 162 162
9.937500000000 16.125000000000 54.539997100830 69 69 69
11.125000000000 15.437500000000 54.539997100830 91 91 91
12.250000000000 14.812500000000 55.546997070313 161 161 161
13.375000000000 14.062500000000 55.222999572754 107 107 107
13.187500000000 14.250000000000 53.819000244141 151 151 151
9.937500000000 16.312500000000 53.662998199463 182 182 182
9.937500000000 16.312500000000 54.548000335693 73 73 73
11.125000000000 15.562500000000 54.542999267578 114 114 114
12.250000000000 14.875000000000 55.546997070313 158 158 158
13.375000000000 14.250000000000 55.219997406006 97 97 97
13.125000000000 14.375000000000 53.816997528076 152 152 152
10.000000000000 16.437500000000 53.678997039795 216 216 216
10.000000000000 16.437500000000 54.541999816895 63 63 63
11.062500000000 15.750000000000 54.534996032715 93 93 93
12.250000000000 15.062500000000 55.555000305176 151 151 151
13.375000000000 14.375000000000 55.231998443604 117 117 117
13.187500000000 14.562500000000 53.814998626709 152 152 152
9.937500000000 16.500000000000 53.680999755859 211 211 211
9.875000000000 16.500000000000 54.537998199463 48 48 48
11.125000000000 15.812500000000 54.530998229980 71 71 71
12.250000000000 15.187500000000 55.545997619629 141 141 141
13.375000000000 14.500000000000 55.219997406006 112 112 112
13.187500000000 14.687500000000 53.814998626709 152 152 152
9.875000000000 16.687500000000 53.674999237061 212 212 212
9.875000000000 16.687500000000 54.541000366211 37 37 37
12.250000000000 15.312500000000 55.544998168945 144 144 144
13.375000000000 14.687500000000 55.222999572754 116 116 116
13.125000000000 14.875000000000 53.809997558594 151 151 151
10.000000000000 16.812500000000 53.685997009277 209 209 209
12.250000000000 15.500000000000 55.548999786377 144 144 144
13.375000000000 14.750000000000 55.224998474121 110 110 110
13.125000000000 14.875000000000 53.810997009277 150 150 150
9.875000000000 16.937500000000 53.687999725342 231 231 231
9.875000000000 16.937500000000 54.541999816895 48 48 48
11.000000000000 16.250000000000 54.531997680664 40 40 40
12.187500000000 15.625000000000 55.544998168945 156 156 156
13.437500000000 14.937500000000 55.229999542236 105 105 105
13.125000000000 15.062500000000 53.816997528076 152 152 152
9.937500000000 17.125000000000 53.676998138428 196 196 196
11.000000000000 16.437500000000 54.531997680664 111 111 111
12.187500000000 15.687500000000 55.555999755859 153 153 153
13.375000000000 15.062500000000 55.219997406006 107 107 107
13.125000000000 15.250000000000 53.812000274658 153 153 153
9.937500000000 17.250000000000 53.675998687744 212 212 212
11.062500000000 16.562500000000 54.531997680664 107 107 107
12.250000000000 15.937500000000 55.550998687744 150 150 150
13.375000000000 15.187500000000 55.215999603271 105 105 105
13.125000000000 15.312500000000 53.816997528076 151 151 151
9.937500000000 17.437500000000 53.660999298096 188 188 188
11.062500000000 16.750000000000 54.529998779297 87 87 87
12.250000000000 16.000000000000 55.556999206543 156 156 156
13.437500000000 15.375000000000 55.225997924805 116 116 116
13.125000000000 15.500000000000 53.814998626709 152 152 152
9.937500000000 17.437500000000 53.661998748779 200 200 200
11.062500000000 16.875000000000 54.541999816895 66 66 66
12.187500000000 16.125000000000 55.557998657227 149 149 149
13.375000000000 15.437500000000 55.224998474121 111 111 111
13.125000000000 15.562500000000 53.819999694824 151 151 151
9.937500000000 17.625000000000 53.671997070313 211 211 211
12.250000000000 16.312500000000 55.549999237061 142 142 142
13.375000000000 15.625000000000 55.226997375488 118 118 118
13.187500000000 15.812500000000 53.812000274658 153 153 153
9.937500000000 17.812500000000 53.667999267578 172 172 172
12.250000000000 16.437500000000 55.555000305176 142 142 142
13.437500000000 15.812500000000 55.232997894287 119 119 119
13.125000000000 15.875000000000 53.808998107910 152 152 152
9.937500000000 17.937500000000 53.662998199463 156 156 156
11.000000000000 17.312500000000 54.537998199463 150 150 150
12.250000000000 16.625000000000 55.562999725342 149 149 149
13.437500000000 15.875000000000 55.226997375488 128 128 128
13.125000000000 16.000000000000 53.807998657227 155 155 155
9.937500000000 18.062500000000 53.690998077393 115 115 115
11.000000000000 17.437500000000 54.517997741699 136 136 136
12.250000000000 16.750000000000 55.548999786377 139 139 139
13.375000000000 16.000000000000 55.234996795654 129 129 129
13.187500000000 16.187500000000 53.812000274658 154 154 154
9.875000000000 18.187500000000 53.655998229980 50 50 50
9.937500000000 18.187500000000 53.741996765137 119 119 119
11.000000000000 17.625000000000 54.655998229980 125 125 125
11.000000000000 17.562500000000 54.523998260498 100 100 100
11.000000000000 17.562500000000 54.379997253418 87 87 87
12.250000000000 16.812500000000 55.564998626709 138 138 138
13.375000000000 16.187500000000 55.239997863770 127 127 127
13.187500000000 16.375000000000 53.816997528076 154 154 154
9.937500000000 18.375000000000 53.656997680664 68 68 68
11.000000000000 17.687500000000 54.673000335693 140 140 140
11.000000000000 17.750000000000 54.405998229980 68 68 68
11.000000000000 17.687500000000 54.376998901367 130 130 130
12.250000000000 17.000000000000 55.558998107910 139 139 139
13.375000000000 16.312500000000 55.233997344971 122 122 122
13.187500000000 16.437500000000 53.815998077393 152 152 152
9.875000000000 18.500000000000 53.657997131348 100 100 100
9.875000000000 18.500000000000 54.567996978760 77 77 77
11.000000000000 17.812500000000 54.690998077393 136 136 136
11.000000000000 17.875000000000 54.379997253418 99 99 99
11.000000000000 17.812500000000 54.367996215820 118 118 118
12.250000000000 17.125000000000 55.562000274658 137 137 137
13.375000000000 16.500000000000 55.225997924805 129 129 129
13.125000000000 16.625000000000 53.810997009277 152 152 152
9.875000000000 18.625000000000 53.662998199463 113 113 113
9.875000000000 18.625000000000 54.562999725342 83 83 83
11.000000000000 18.000000000000 54.705997467041 56 56 56
11.000000000000 18.000000000000 54.378997802734 124 124 124
11.000000000000 18.000000000000 54.350997924805 117 117 117
12.250000000000 17.250000000000 55.560997009277 156 156 156
13.375000000000 16.562500000000 55.239997863770 124 124 124
13.125000000000 16.750000000000 53.815998077393 151 151 151
9.937500000000 18.812500000000 53.652000427246 141 141 141
9.875000000000 18.812500000000 54.562000274658 81 81 81
11.000000000000 18.125000000000 54.347999572754 113 113 113
11.062500000000 18.125000000000 54.346996307373 65 65 65
12.250000000000 17.437500000000 55.564998626709 159 159 159
13.375000000000 16.687500000000 55.236999511719 127 127 127
13.125000000000 16.812500000000 53.813999176025 152 152 152
9.937500000000 18.937500000000 53.637996673584 152 152 152
9.875000000000 18.937500000000 54.565998077393 81 81 81
10.937500000000 18.250000000000 54.709999084473 52 52 52
10.937500000000 18.250000000000 54.372997283936 109 109 109
12.250000000000 17.562500000000 55.562000274658 148 148 148
13.437500000000 16.875000000000 55.237998962402 121 121 121
13.125000000000 17.000000000000 53.819999694824 152 152 152
9.937500000000 19.000000000000 53.655998229980 192 192 192
9.875000000000 19.062500000000 54.581996917725 84 84 84
10.937500000000 18.437500000000 54.711997985840 88 88 88
10.937500000000 18.437500000000 54.363998413086 92 92 92
12.187500000000 17.687500000000 55.559997558594 143 143 143
13.375000000000 16.937500000000 55.237998962402 124 124 124
13.125000000000 17.125000000000 53.817996978760 150 150 150
9.937500000000 19.187500000000 53.654998779297 196 196 196
9.875000000000 19.187500000000 54.576999664307 83 83 83
11.000000000000 18.562500000000 54.730998992920 84 84 84
11.000000000000 18.562500000000 54.344997406006 82 82 82
12.250000000000 17.812500000000 55.571998596191 162 162 162
13.375000000000 17.125000000000 55.232997894287 117 117 117
13.125000000000 17.312500000000 53.822998046875 154 154 154
9.875000000000 19.312500000000 53.654998779297 206 206 206
9.875000000000 19.312500000000 54.590999603271 74 74 74
10.875000000000 18.687500000000 54.717998504639 76 76 76
11.000000000000 18.750000000000 54.333000183105 59 59 59
12.250000000000 17.937500000000 55.558998107910 141 141 141
13.437500000000 17.250000000000 55.243999481201 125 125 125
13.125000000000 17.437500000000 53.824996948242 151 151 151
12.250000000000 18.125000000000 55.562000274658 141 141 141
13.437500000000 17.437500000000 55.237998962402 127 127 127
13.125000000000 17.562500000000 53.823997497559 152 152 152
12.250000000000 18.187500000000 55.559997558594 148 148 148
13.375000000000 17.562500000000 55.239997863770 122 122 122
13.187500000000 17.750000000000 53.817996978760 152 152 152
10.937500000000 19.187500000000 54.740997314453 74 74 74
10.937500000000 19.187500000000 54.333999633789 79 79 79
12.250000000000 18.375000000000 55.569000244141 135 135 135
13.375000000000 17.687500000000 55.238998413086 126 126 126
13.187500000000 17.812500000000 53.815998077393 152 152 152
10.937500000000 19.250000000000 54.747997283936 82 82 82
10.937500000000 19.250000000000 54.324996948242 96 96 96
12.250000000000 18.562500000000 55.571998596191 138 138 138
13.375000000000 17.812500000000 55.243999481201 126 126 126
13.125000000000 17.937500000000 53.819000244141 151 151 151
12.250000000000 18.687500000000 55.563999176025 127 127 127
13.375000000000 17.937500000000 55.243999481201 130 130 130
13.187500000000 18.125000000000 53.824996948242 156 156 156
12.250000000000 18.750000000000 55.578998565674 136 136 136
13.375000000000 18.062500000000 55.240997314453 128 128 128
13.187500000000 18.250000000000 53.826999664307 154 154 154
12.250000000000 18.875000000000 55.565998077393 143 143 143
13.375000000000 18.250000000000 55.251998901367 128 128 128
13.125000000000 18.375000000000 53.821998596191 153 153 153
12.187500000000 19.062500000000 55.578998565674 139 139 139
13.375000000000 18.375000000000 55.243999481201 132 132 132
13.125000000000 18.562500000000 53.821998596191 154 154 154
12.187500000000 19.187500000000 55.577999114990 142 142 142
13.437500000000 18.562500000000 55.246997833252 132 132 132
13.125000000000 18.687500000000 53.829998016357 154 154 154
12.187500000000 19.312500000000 55.567996978760 131 131 131
13.375000000000 18.687500000000 55.251998901367 130 130 130
13.125000000000 18.812500000000 53.829998016357 154 154 154
13.375000000000 18.750000000000 55.258998870850 135 135 135
13.125000000000 18.937500000000 53.826000213623 154 154 154
13.437500000000 18.937500000000 55.252998352051 130 130 130
13.125000000000 19.062500000000 53.826999664307 155 155 155
13.375000000000 19.062500000000 55.256996154785 129 129 129
13.125000000000 19.250000000000 53.821998596191 152 152 152
13.437500000000 19.187500000000 55.245998382568 133 133 133
6.312500000000 0.062500000000 55.182998657227 19 19 19
6.375000000000 0.125000000000 56.125999450684 12 12 12
6.375000000000 0.250000000000 56.143997192383 18 18 18
6.312500000000 0.437500000000 56.150997161865 17 17 17
6.937500000000 0.062500000000 54.204998016357 139 139 139
7.125000000000 0.125000000000 56.252998352051 14 14 14
6.375000000000 0.562500000000 56.112998962402 21 21 21
6.937500000000 0.187500000000 54.201999664307 140 140 140
6.312500000000 0.687500000000 56.135997772217 24 24 24
6.937500000000 0.375000000000 54.196998596191 137 137 137
6.312500000000 0.812500000000 56.123996734619 22 22 22
7.000000000000 0.437500000000 54.192996978760 133 133 133
6.375000000000 0.937500000000 56.134998321533 21 21 21
6.937500000000 0.562500000000 54.197998046875 134 134 134
6.375000000000 1.125000000000 56.138996124268 19 19 19
7.000000000000 0.750000000000 54.196998596191 112 112 112
6.375000000000 1.250000000000 56.124996185303 18 18 18
7.000000000000 0.875000000000 54.183998107910 91 91 91
7.000000000000 1.062500000000 54.190998077393 65 65 65
5.250000000000 2.062500000000 55.056999206543 19 19 19
7.000000000000 1.187500000000 54.197998046875 41 41 41
5.250000000000 2.125000000000 55.056999206543 35 35 35
5.250000000000 2.312500000000 55.055999755859 40 40 40
5.250000000000 2.437500000000 55.059997558594 59 59 59
5.250000000000 2.562500000000 55.055999755859 75 75 75
5.312500000000 2.750000000000 55.057998657227 85 85 85
6.937500000000 1.937500000000 54.154998779297 27 27 27
5.312500000000 2.812500000000 55.048000335693 92 92 92
6.687500000000 2.125000000000 56.473999023438 16 16 16
6.250000000000 2.437500000000 55.131996154785 16 16 16
7.000000000000 2.000000000000 54.154998779297 52 52 52
5.250000000000 2.937500000000 55.052997589111 101 101 101
6.687500000000 2.312500000000 56.475997924805 26 26 26
6.312500000000 2.562500000000 55.127998352051 27 27 27
6.937500000000 2.125000000000 54.143997192383 56 56 56
5.312500000000 3.125000000000 55.050998687744 101 101 101
6.687500000000 2.437500000000 56.475997924805 34 34 34
6.250000000000 2.687500000000 55.122997283936 45 45 45
6.937500000000 2.250000000000 54.150997161865 89 89 89
5.312500000000 3.250000000000 55.048999786377 112 112 112
6.687500000000 2.562500000000 56.471996307373 42 42 42
6.250000000000 2.812500000000 55.128997802734 48 48 48
7.000000000000 2.437500000000 54.135997772217 96 96 96
5.312500000000 3.437500000000 55.045997619629 112 112 112
10.187500000000 0.687500000000 54.611999511719 46 46 46
6.687500000000 2.750000000000 56.465999603271 48 48 48
6.312500000000 2.937500000000 55.136997222900 63 63 63
7.000000000000 2.625000000000 54.141998291016 118 118 118
5.312500000000 3.562500000000 55.048999786377 116 116 116
10.187500000000 0.812500000000 54.602996826172 61 61 61
6.750000000000 2.812500000000 56.473999023438 52 52 52
6.312500000000 3.125000000000 55.126998901367 70 70 70
7.000000000000 2.625000000000 54.140998840332 136 136 136
5.250000000000 3.687500000000 55.055000305176 115 115 115
6.750000000000 3.000000000000 56.479995727539 51 51 51
6.250000000000 3.187500000000 55.132999420166 81 81 81
6.937500000000 2.812500000000 54.141998291016 133 133 133
5.250000000000 3.812500000000 55.050998687744 114 114 114
10.187500000000 0.875000000000 54.587997436523 70 70 70
6.687500000000 3.125000000000 56.466999053955 43 43 43
6.250000000000 3.375000000000 55.123996734619 82 82 82
7.000000000000 3.000000000000 54.143997192383 141 141 141
5.312500000000 3.937500000000 55.052997589111 117 117 117
10.187500000000 1.062500000000 54.601997375488 71 71 71
10.125000000000 1.187500000000 54.590999603271 71 71 71
6.750000000000 3.250000000000 56.466999053955 44 44 44
6.250000000000 3.562500000000 55.140998840332 82 82 82
7.000000000000 3.125000000000 54.139999389648 142 142 142
5.250000000000 4.062500000000 55.059997558594 105 105 105
7.125000000000 3.187500000000 56.184997558594 16 16 16
6.750000000000 3.437500000000 56.469997406006 27 27 27
6.250000000000 3.687500000000 55.126998901367 84 84 84
6.937500000000 3.250000000000 54.136997222900 138 138 138
5.250000000000 4.250000000000 55.050998687744 102 102 102
10.250000000000 1.375000000000 54.583000183105 42 42 42
7.062500000000 3.250000000000 56.187000274658 19 19 19
6.750000000000 3.562500000000 56.465000152588 24 24 24
6.250000000000 3.812500000000 55.125999450684 82 82 82
6.937500000000 3.375000000000 54.135997772217 137 137 137
5.312500000000 4.375000000000 55.058998107910 106 106 106
7.062500000000 3.437500000000 56.194000244141 22 22 22
6.750000000000 3.625000000000 56.451000213623 21 21 21
6.250000000000 3.875000000000 55.122997283936 84 84 84
6.937500000000 3.500000000000 54.128997802734 134 134 134
5.250000000000 4.500000000000 55.057998657227 96 96 96
7.125000000000 3.625000000000 56.196998596191 26 26 26
6.687500000000 3.812500000000 56.471996307373 18 18 18
6.250000000000 4.062500000000 55.124996185303 88 88 88
7.000000000000 3.687500000000 54.131996154785 126 126 126
5.312500000000 4.687500000000 55.057998657227 89 89 89
7.125000000000 3.750000000000 56.183998107910 30 30 30
6.312500000000 4.250000000000 55.118999481201 83 83 83
6.937500000000 3.750000000000 54.133998870850 110 110 110
5.312500000000 4.812500000000 55.059997558594 74 74 74
7.125000000000 3.875000000000 56.178997039795 32 32 32
6.250000000000 4.312500000000 55.119998931885 87 87 87
7.000000000000 3.937500000000 54.133998870850 111 111 111
5.312500000000 4.937500000000 55.052997589111 73 73 73
7.125000000000 3.937500000000 56.174999237061 38 38 38
6.312500000000 4.500000000000 55.126998901367 83 83 83
7.000000000000 4.062500000000 54.129997253418 83 83 83
5.312500000000 5.062500000000 55.052997589111 49 49 49
7.125000000000 4.125000000000 56.188999176025 43 43 43
6.312500000000 4.625000000000 55.131996154785 77 77 77
6.937500000000 4.187500000000 54.132999420166 72 72 72
5.250000000000 5.187500000000 55.066997528076 28 28 28
7.125000000000 4.312500000000 56.182998657227 34 34 34
6.375000000000 4.750000000000 56.076000213623 13 13 13
6.250000000000 4.687500000000 55.131996154785 77 77 77
7.000000000000 4.375000000000 54.123996734619 53 53 53
5.250000000000 5.375000000000 55.065998077393 13 13 13
7.125000000000 4.375000000000 56.183998107910 23 23 23
6.375000000000 4.875000000000 56.070999145508 19 19 19
6.312500000000 4.875000000000 55.125999450684 55 55 55
10.125000000000 2.750000000000 54.562000274658 45 45 45
7.125000000000 4.562500000000 56.187000274658 22 22 22
6.375000000000 5.000000000000 56.065998077393 24 24 24
6.312500000000 5.000000000000 55.125999450684 49 49 49
10.125000000000 2.750000000000 53.840000152588 129 129 129
10.125000000000 2.875000000000 54.570999145508 45 45 45
7.062500000000 4.687500000000 56.194999694824 16 16 16
6.312500000000 5.187500000000 56.071998596191 20 20 20
6.312500000000 5.187500000000 55.130996704102 49 49 49
10.125000000000 2.812500000000 53.813999176025 156 156 156
10.125000000000 3.062500000000 54.569999694824 48 48 48
7.125000000000 4.875000000000 56.191997528076 17 17 17
6.312500000000 5.250000000000 56.059997558594 25 25 25
6.312500000000 5.312500000000 55.122997283936 47 47 47
10.125000000000 3.000000000000 53.823997497559 162 162 162
10.125000000000 3.187500000000 54.569999694824 51 51 51
7.062500000000 4.937500000000 56.194000244141 17 17 17
6.312500000000 5.375000000000 56.066997528076 25 25 25
6.250000000000 5.437500000000 55.128997802734 52 52 52
10.125000000000 3.125000000000 53.830997467041 137 137 137
10.187500000000 3.312500000000 54.562999725342 63 63 63
7.125000000000 5.062500000000 56.173000335693 14 14 14
6.312500000000 5.562500000000 56.062999725342 25 25 25
6.250000000000 5.562500000000 55.127998352051 35 35 35
10.187500000000 3.312500000000 53.817996978760 112 112 112
10.125000000000 3.375000000000 54.567996978760 60 60 60
7.125000000000 5.250000000000 56.194000244141 22 22 22
6.375000000000 5.687500000000 56.058998107910 24 24 24
6.375000000000 5.687500000000 55.107997894287 65 65 65
10.125000000000 3.375000000000 53.833000183105 104 104 104
10.125000000000 3.562500000000 54.552997589111 69 69 69
7.062500000000 5.375000000000 56.177997589111 21 21 21
6.312500000000 5.812500000000 56.049999237061 25 25 25
6.250000000000 5.812500000000 55.108997344971 60 60 60
10.125000000000 3.750000000000 54.564998626709 70 70 70
7.125000000000 5.500000000000 56.177997589111 23 23 23
6.312500000000 5.937500000000 56.044998168945 19 19 19
6.250000000000 6.000000000000 55.123996734619 68 68 68
10.125000000000 3.875000000000 54.564998626709 76 76 76
7.125000000000 5.687500000000 56.173000335693 21 21 21
6.375000000000 6.062500000000 56.055000305176 20 20 20
6.312500000000 6.125000000000 55.126998901367 65 65 65
10.125000000000 4.000000000000 54.552997589111 77 77 77
7.125000000000 5.812500000000 56.184997558594 17 17 17
6.375000000000 6.250000000000 56.058998107910 24 24 24
6.250000000000 6.250000000000 55.116996765137 56 56 56
10.125000000000 4.125000000000 54.552997589111 76 76 76
7.125000000000 5.937500000000 56.176998138428 16 16 16
6.375000000000 6.375000000000 56.050998687744 26 26 26
6.312500000000 6.437500000000 55.124996185303 54 54 54
10.125000000000 4.312500000000 54.544998168945 59 59 59
7.125000000000 6.062500000000 56.173999786377 14 14 14
6.375000000000 6.500000000000 56.056999206543 28 28 28
6.312500000000 6.562500000000 55.122997283936 47 47 47
10.125000000000 4.375000000000 54.546997070313 33 33 33
7.125000000000 6.187500000000 56.163997650146 13 13 13
6.375000000000 6.687500000000 56.055000305176 24 24 24
6.312500000000 6.687500000000 55.132999420166 26 26 26
7.000000000000 6.312500000000 54.069000244141 44 44 44
10.125000000000 4.375000000000 53.773998260498 74 74 74
10.125000000000 4.500000000000 53.778999328613 84 84 84
10.125000000000 4.500000000000 54.541999816895 43 43 43
7.062500000000 6.312500000000 56.173999786377 24 24 24
6.375000000000 6.812500000000 56.062000274658 29 29 29
6.312500000000 6.812500000000 55.119998931885 56 56 56
5.250000000000 7.437500000000 55.048000335693 13 13 13
10.125000000000 4.687500000000 53.780998229980 94 94 94
10.125000000000 4.687500000000 54.544998168945 35 35 35
7.062500000000 6.500000000000 56.170997619629 23 23 23
6.375000000000 6.937500000000 56.053997039795 21 21 21
6.312500000000 6.937500000000 55.115997314453 71 71 71
5.250000000000 7.562500000000 55.056999206543 16 16 16
10.125000000000 4.812500000000 53.780998229980 106 106 106
7.062500000000 6.625000000000 56.161998748779 45 45 45
6.375000000000 7.062500000000 56.041999816895 16 16 16
6.312500000000 7.125000000000 55.113998413086 79 79 79
5.250000000000 7.687500000000 55.060997009277 61 61 61
10.125000000000 4.937500000000 53.766998291016 118 118 118
7.125000000000 6.812500000000 56.161998748779 39 39 39
6.312500000000 7.187500000000 56.043998718262 13 13 13
6.312500000000 7.187500000000 55.107997894287 83 83 83
5.312500000000 7.812500000000 55.045997619629 83 83 83
10.125000000000 5.125000000000 53.784000396729 124 124 124
7.062500000000 6.937500000000 56.154998779297 38 38 38
6.312500000000 7.312500000000 56.041999816895 15 15 15
6.250000000000 7.375000000000 55.109996795654 88 88 88
5.312500000000 7.937500000000 55.037998199463 91 91 91
10.125000000000 5.187500000000 53.789997100830 125 125 125
10.125000000000 5.187500000000 54.545997619629 24 24 24
7.062500000000 7.062500000000 56.149997711182 33 33 33
6.750000000000 7.250000000000 56.419998168945 15 15 15
6.250000000000 7.562500000000 55.107997894287 83 83 83
5.250000000000 8.062500000000 55.035999298096 100 100 100
10.125000000000 5.312500000000 53.788997650146 124 124 124
7.125000000000 7.187500000000 56.174999237061 23 23 23
6.750000000000 7.437500000000 56.423999786377 22 22 22
6.250000000000 7.687500000000 55.103996276855 78 78 78
5.312500000000 8.250000000000 55.034996032715 107 107 107
10.062500000000 5.500000000000 53.779998779297 135 135 135
7.062500000000 7.312500000000 56.156997680664 22 22 22
6.750000000000 7.500000000000 56.416999816895 26 26 26
6.250000000000 7.750000000000 55.095996856689 81 81 81
5.312500000000 8.375000000000 55.034000396729 110 110 110
7.125000000000 7.437500000000 56.173999786377 22 22 22
6.687500000000 7.687500000000 56.430000305176 28 28 28
6.250000000000 7.937500000000 55.107997894287 77 77 77
5.250000000000 8.500000000000 55.034000396729 112 112 112
10.125000000000 5.625000000000 53.786998748779 151 151 151
10.062500000000 5.750000000000 53.782997131348 168 168 168
7.125000000000 7.625000000000 56.152000427246 29 29 29
6.687500000000 7.812500000000 56.418998718262 15 15 15
6.312500000000 8.062500000000 55.102996826172 84 84 84
5.312500000000 8.687500000000 55.034996032715 102 102 102
7.000000000000 7.687500000000 56.162998199463 24 24 24
6.687500000000 7.937500000000 56.415000915527 24 24 24
6.250000000000 8.187500000000 55.102996826172 77 77 77
5.312500000000 8.750000000000 55.027996063232 102 102 102
10.062500000000 5.937500000000 53.794998168945 176 176 176
7.125000000000 7.875000000000 56.155998229980 24 24 24
6.687500000000 8.062500000000 56.416000366211 21 21 21
6.250000000000 8.312500000000 55.106998443604 79 79 79
5.250000000000 8.937500000000 55.038997650146 109 109 109
10.125000000000 6.062500000000 53.791000366211 191 191 191
10.125000000000 6.250000000000 53.796997070313 196 196 196
7.062500000000 8.062500000000 56.161998748779 18 18 18
6.687500000000 8.250000000000 56.430000305176 21 21 21
6.312500000000 8.500000000000 55.104999542236 78 78 78
5.250000000000 9.062500000000 55.029998779297 107 107 107
7.062500000000 8.187500000000 56.160999298096 18 18 18
6.750000000000 8.375000000000 56.422000885010 20 20 20
6.312500000000 8.687500000000 55.098999023438 75 75 75
5.250000000000 9.187500000000 55.036998748779 115 115 115
10.125000000000 6.312500000000 53.789997100830 204 204 204
10.125000000000 6.437500000000 53.787998199463 201 201 201
7.062500000000 8.250000000000 56.159000396729 14 14 14
6.687500000000 8.500000000000 56.419998168945 22 22 22
6.250000000000 8.687500000000 55.103996276855 75 75 75
5.250000000000 9.375000000000 55.030998229980 110 110 110
7.062500000000 8.375000000000 56.146999359131 13 13 13
6.687500000000 8.625000000000 56.423999786377 31 31 31
6.250000000000 8.875000000000 55.094997406006 79 79 79
5.250000000000 9.500000000000 55.031997680664 109 109 109
10.125000000000 6.625000000000 53.789997100830 177 177 177
7.062500000000 8.562500000000 56.161998748779 17 17 17
6.750000000000 8.750000000000 56.423999786377 25 25 25
6.250000000000 9.000000000000 55.096996307373 71 71 71
5.250000000000 9.625000000000 55.036998748779 115 115 115
10.125000000000 6.750000000000 53.791999816895 145 145 145
10.125000000000 6.875000000000 53.782997131348 156 156 156
6.625000000000 8.875000000000 56.415000915527 39 39 39
6.250000000000 9.125000000000 55.095996856689 59 59 59
5.250000000000 9.812500000000 55.027000427246 114 114 114
10.062500000000 7.062500000000 54.534000396729 36 36 36
6.687500000000 9.062500000000 56.416999816895 45 45 45
6.250000000000 9.312500000000 55.109996795654 55 55 55
5.312500000000 9.875000000000 55.020996093750 110 110 110
10.125000000000 7.062500000000 53.780998229980 72 72 72
10.062500000000 7.187500000000 54.527996063232 57 57 57
6.750000000000 9.187500000000 56.409996032715 31 31 31
6.250000000000 9.437500000000 55.092998504639 54 54 54
5.250000000000 10.000000000000 55.032997131348 108 108 108
10.062500000000 7.312500000000 54.522998809814 61 61 61
6.750000000000 9.375000000000 56.405998229980 38 38 38
6.250000000000 9.625000000000 55.092998504639 59 59 59
5.312500000000 10.187500000000 55.024997711182 110 110 110
10.062500000000 7.500000000000 53.782997131348 86 86 86
10.062500000000 7.500000000000 54.532997131348 60 60 60
6.687500000000 9.437500000000 56.410995483398 26 26 26
6.250000000000 9.687500000000 55.105998992920 63 63 63
5.312500000000 10.312500000000 55.031997680664 116 116 116
10.125000000000 7.625000000000 53.791999816895 145 145 145
10.125000000000 7.625000000000 54.535999298096 70 70 70
7.125000000000 9.375000000000 56.150997161865 18 18 18
6.687500000000 9.562500000000 56.413997650146 24 24 24
6.250000000000 9.812500000000 55.090000152588 69 69 69
5.312500000000 10.500000000000 55.025997161865 112 112 112
10.125000000000 7.812500000000 53.777000427246 163 163 163
10.125000000000 7.812500000000 54.518997192383 76 76 76
7.062500000000 9.500000000000 56.170997619629 24 24 24
6.687500000000 9.750000000000 56.409000396729 15 15 15
6.312500000000 10.000000000000 55.093997955322 76 76 76
5.250000000000 10.562500000000 55.035999298096 112 112 112
10.000000000000 7.812500000000 53.771999359131 171 171 171
10.000000000000 7.812500000000 54.524997711182 81 81 81
7.062500000000 9.687500000000 56.166000366211 28 28 28
6.312500000000 10.125000000000 55.096996307373 76 76 76
5.250000000000 10.687500000000 55.034000396729 114 114 114
10.125000000000 8.000000000000 53.770996093750 163 163 163
10.125000000000 8.000000000000 54.523998260498 83 83 83
7.062500000000 9.812500000000 56.173000335693 23 23 23
6.687500000000 10.000000000000 56.413997650146 19 19 19
6.250000000000 10.250000000000 55.095996856689 75 75 75
5.250000000000 10.875000000000 55.036998748779 119 119 119
10.125000000000 8.187500000000 53.777000427246 173 173 173
10.125000000000 8.187500000000 54.520996093750 71 71 71
7.062500000000 9.937500000000 56.157997131348 19 19 19
6.687500000000 10.187500000000 56.419998168945 15 15 15
6.312500000000 10.437500000000 55.102996826172 75 75 75
5.250000000000 10.937500000000 55.034000396729 115 115 115
10.125000000000 8.250000000000 53.771999359131 186 186 186
10.062500000000 8.250000000000 54.517997741699 43 43 43
7.062500000000 10.062500000000 56.166000366211 21 21 21
6.750000000000 10.312500000000 56.416999816895 17 17 17
6.250000000000 10.562500000000 55.100997924805 68 68 68
5.250000000000 11.125000000000 55.031997680664 119 119 119
10.062500000000 8.437500000000 53.772998809814 193 193 193
7.062500000000 10.187500000000 56.152996063232 23 23 23
6.750000000000 10.500000000000 56.416000366211 19 19 19
6.250000000000 10.687500000000 55.096996307373 64 64 64
5.250000000000 11.312500000000 55.029998779297 110 110 110
10.062500000000 8.562500000000 53.768997192383 196 196 196
7.062500000000 10.312500000000 56.159996032715 21 21 21
6.687500000000 10.500000000000 56.409000396729 16 16 16
6.250000000000 10.812500000000 55.097999572754 68 68 68
5.312500000000 11.437500000000 55.027996063232 115 115 115
10.062500000000 8.687500000000 53.762996673584 176 176 176
7.062500000000 10.500000000000 56.161998748779 28 28 28
6.750000000000 10.687500000000 56.423000335693 13 13 13
6.250000000000 10.937500000000 55.092998504639 77 77 77
5.250000000000 11.562500000000 55.021999359131 113 113 113
10.062500000000 8.812500000000 53.773998260498 129 129 129
7.125000000000 10.625000000000 56.166999816895 28 28 28
6.750000000000 10.875000000000 56.420997619629 17 17 17
6.250000000000 11.125000000000 55.096996307373 75 75 75
5.250000000000 11.687500000000 55.035999298096 114 114 114
10.062500000000 8.937500000000 53.778999328613 57 57 57
7.062500000000 10.750000000000 56.159000396729 41 41 41
6.312500000000 11.187500000000 56.038997650146 15 15 15
6.250000000000 11.250000000000 55.096996307373 79 79 79
5.312500000000 11.812500000000 55.041999816895 111 111 111
10.000000000000 9.187500000000 53.774997711182 63 63 63
7.062500000000 10.937500000000 56.144996643066 54 54 54
6.312500000000 11.312500000000 56.035999298096 17 17 17
6.250000000000 11.375000000000 55.105998992920 79 79 79
6.937500000000 11.000000000000 54.053997039795 56 56 56
5.312500000000 12.000000000000 55.034000396729 116 116 116
10.125000000000 9.250000000000 53.768997192383 159 159 159
10.062500000000 9.250000000000 54.532997131348 62 62 62
7.125000000000 11.000000000000 56.167999267578 45 45 45
6.312500000000 11.500000000000 56.038997650146 22 22 22
6.250000000000 11.562500000000 55.099998474121 84 84 84
7.000000000000 11.125000000000 54.058998107910 83 83 83
5.312500000000 12.062500000000 55.034000396729 100 100 100
10.000000000000 9.375000000000 53.768997192383 184 184 184
10.000000000000 9.375000000000 54.529998779297 66 66 66
7.125000000000 11.187500000000 56.159000396729 38 38 38
6.375000000000 11.625000000000 56.035999298096 18 18 18
6.312500000000 11.625000000000 55.104999542236 81 81 81
6.875000000000 11.250000000000 54.056999206543 94 94 94
5.312500000000 12.250000000000 55.042999267578 93 93 93
10.062500000000 9.562500000000 53.763996124268 190 190 190
10.062500000000 9.562500000000 54.523998260498 71 71 71
7.125000000000 11.312500000000 56.152996063232 37 37 37
6.375000000000 11.812500000000 56.044998168945 18 18 18
6.250000000000 11.750000000000 55.109996795654 79 79 79
7.000000000000 11.437500000000 54.053997039795 97 97 97
5.312500000000 12.375000000000 55.043998718262 94 94 94
10.062500000000 9.687500000000 53.760997772217 185 185 185
10.062500000000 9.687500000000 54.527996063232 75 75 75
7.062500000000 11.437500000000 56.171997070313 27 27 27
6.375000000000 11.937500000000 56.036998748779 12 12 12
6.312500000000 11.937500000000 55.108997344971 79 79 79
6.937500000000 11.562500000000 54.055999755859 115 115 115
5.250000000000 12.562500000000 55.045997619629 75 75 75
10.062500000000 9.875000000000 53.759998321533 200 200 200
10.062500000000 9.875000000000 54.527000427246 85 85 85
7.062500000000 11.625000000000 56.159000396729 25 25 25
6.312500000000 12.062500000000 55.102996826172 73 73 73
6.937500000000 11.750000000000 54.062000274658 119 119 119
5.250000000000 12.687500000000 55.044998168945 79 79 79
10.062500000000 10.000000000000 53.763996124268 215 215 215
10.062500000000 10.000000000000 54.518997192383 80 80 80
7.062500000000 11.750000000000 56.159000396729 23 23 23
6.375000000000 12.187500000000 56.034000396729 13 13 13
6.312500000000 12.250000000000 55.107997894287 79 79 79
6.937500000000 11.750000000000 54.052997589111 110 110 110
5.250000000000 12.750000000000 55.045997619629 87 87 87
10.062500000000 10.062500000000 53.747997283936 218 218 218
10.062500000000 10.125000000000 54.522998809814 58 58 58
7.062500000000 11.875000000000 56.170997619629 23 23 23
6.375000000000 12.250000000000 56.043998718262 16 16 16
6.312500000000 12.312500000000 55.106998443604 73 73 73
6.937500000000 11.937500000000 54.055000305176 119 119 119
5.250000000000 12.937500000000 55.042999267578 80 80 80
10.062500000000 10.250000000000 53.746997833252 178 178 178
7.062500000000 12.000000000000 56.169998168945 22 22 22
6.312500000000 12.437500000000 55.109996795654 83 83 83
6.937500000000 12.125000000000 54.058998107910 118 118 118
5.250000000000 13.062500000000 55.038997650146 79 79 79
10.062500000000 10.375000000000 53.746997833252 113 113 113
6.250000000000 12.687500000000 55.117996215820 43 43 43
6.937500000000 12.250000000000 54.058998107910 121 121 121
5.250000000000 13.187500000000 55.044998168945 39 39 39
10.062500000000 10.500000000000 53.747997283936 83 83 83
6.250000000000 12.750000000000 55.113998413086 56 56 56
6.937500000000 12.375000000000 54.064998626709 119 119 119
5.312500000000 13.375000000000 55.057998657227 63 63 63
10.062500000000 10.687500000000 53.749996185303 47 47 47
6.250000000000 12.875000000000 55.109996795654 38 38 38
6.937500000000 12.562500000000 54.060997009277 122 122 122
5.312500000000 13.500000000000 55.050998687744 44 44 44
10.062500000000 10.812500000000 53.738998413086 129 129 129
6.250000000000 13.062500000000 55.119998931885 22 22 22
7.000000000000 12.687500000000 54.067996978760 118 118 118
10.000000000000 10.937500000000 53.751998901367 167 167 167
10.000000000000 10.937500000000 54.527996063232 36 36 36
6.312500000000 13.187500000000 55.124996185303 18 18 18
7.000000000000 12.812500000000 54.060997009277 110 110 110
10.000000000000 11.125000000000 53.741996765137 204 204 204
10.000000000000 11.125000000000 54.510997772217 58 58 58
6.875000000000 12.875000000000 54.064998626709 104 104 104
10.062500000000 11.250000000000 53.744998931885 196 196 196
10.000000000000 11.250000000000 54.536998748779 69 69 69
7.000000000000 13.062500000000 54.062999725342 107 107 107
10.062500000000 11.437500000000 53.741996765137 205 205 205
10.000000000000 11.437500000000 54.520996093750 72 72 72
7.000000000000 13.250000000000 54.063999176025 96 96 96
10.062500000000 11.562500000000 53.740997314453 206 206 206
10.000000000000 11.562500000000 54.514999389648 66 66 66
