11.765625000000 9.625000000000 3.345999717712 188 188 188
11.375000000000 9.375000000000 3.276999473572 219 219 219
11.375000000000 9.375000000000 3.341000556946 194 194 194
11.750000000000 9.750000000000 3.224999427795 223 223 223
11.750000000000 9.750000000000 3.286999702454 223 223 223
11.750000000000 9.750000000000 3.341000556946 199 199 199
11.375000000000 9.500000000000 3.277998924255 217 217 217
11.375000000000 9.500000000000 3.342000007629 196 196 196
11.718750000000 9.875000000000 3.219000816345 224 224 224
11.718750000000 9.875000000000 3.277998924255 226 226 226
11.718750000000 9.875000000000 3.336998939514 212 212 212
11.343750000000 9.625000000000 3.276000022888 219 219 219
11.343750000000 9.625000000000 3.338000297546 193 193 193
11.703125000000 10.062500000000 3.213999748230 220 220 220
11.687500000000 10.000000000000 3.269999504089 228 228 228
11.703125000000 10.062500000000 3.331999778748 223 223 223
11.343750000000 9.812500000000 3.272999763489 221 221 221
11.343750000000 9.812500000000 3.338999748230 193 193 193
11.671875000000 10.187500000000 3.206999778748 214 214 214
11.671875000000 10.187500000000 3.265000343323 228 228 228
11.671875000000 10.187500000000 3.324999809265 227 227 227
11.328125000000 9.937500000000 3.273999214172 225 225 225
11.328125000000 9.937500000000 3.339999198914 193 193 193
11.671875000000 10.312500000000 3.206000328064 192 192 192
11.656250000000 10.312500000000 3.262000083923 226 226 226
11.656250000000 10.312500000000 3.321999549866 227 227 227
11.328125000000 10.062500000000 3.276000022888 211 211 211
11.328125000000 10.125000000000 3.338999748230 193 193 193
11.640625000000 10.437500000000 3.199999809265 189 189 189
11.640625000000 10.437500000000 3.259999275208 226 226 226
11.625000000000 10.437500000000 3.315999031067 227 227 227
11.312500000000 10.250000000000 3.272999763489 198 198 198
11.312500000000 10.250000000000 3.338000297546 191 191 191
11.625000000000 10.562500000000 3.196000099182 182 182 182
11.593750000000 10.562500000000 3.252999305725 227 227 227
11.593750000000 10.562500000000 3.311999320984 227 227 227
11.296875000000 10.375000000000 3.273999214172 219 219 219
11.296875000000 10.375000000000 3.336998939514 222 222 222
11.625000000000 10.750000000000 3.199999809265 94 94 94
11.578125000000 10.687500000000 3.247000694275 226 226 226
11.593750000000 10.750000000000 3.310000419617 224 224 224
11.281250000000 10.500000000000 3.272000312805 194 194 194
11.281250000000 10.500000000000 3.335000038147 218 218 218
11.578125000000 10.875000000000 3.186999320984 32 32 32
11.578125000000 10.875000000000 3.244000434875 222 222 222
11.578125000000 10.875000000000 3.301999092102 226 226 226
11.281250000000 10.687500000000 3.270998954773 209 209 209
11.281250000000 10.687500000000 3.332999229431 221 221 221
11.531250000000 11.000000000000 3.234999656677 228 228 228
11.546875000000 11.000000000000 3.296999931335 225 225 225
11.250000000000 10.812500000000 3.266999244690 220 220 220
11.281250000000 10.812500000000 3.331000328064 223 223 223
11.531250000000 11.125000000000 3.233000755310 214 214 214
11.531250000000 11.125000000000 3.292000770569 203 203 203
11.312500000000 11.000000000000 3.283999443054 214 214 214
11.359375000000 11.000000000000 3.362999916077 196 196 196
11.484375000000 11.125000000000 3.456000328064 124 124 124
11.500000000000 11.250000000000 3.226000785828 225 225 225
11.500000000000 11.250000000000 3.286000251770 221 221 221
11.343750000000 11.125000000000 3.293999671936 206 206 206
11.421875000000 11.187500000000 3.380999565125 180 180 180
11.421875000000 11.187500000000 3.442999839783 181 181 181
11.421875000000 11.187500000000 3.501000404358 45 45 45
11.484375000000 11.375000000000 3.219000816345 222 222 222
11.484375000000 11.375000000000 3.279999732971 225 225 225
11.437500000000 11.375000000000 3.325999259949 183 183 183
11.265625000000 11.250000000000 3.335999488831 203 203 203
11.437500000000 11.500000000000 3.210000038147 191 191 191
11.453125000000 11.500000000000 3.272999763489 188 188 188
11.359375000000 11.437500000000 3.304999351501 203 203 203
11.265625000000 11.375000000000 3.335000038147 203 203 203
11.406250000000 11.625000000000 3.200999259949 199 199 199
11.406250000000 11.625000000000 3.265999794006 189 189 189
11.375000000000 11.625000000000 3.311999320984 214 214 214
11.250000000000 11.562500000000 3.334000587463 199 199 199
11.390625000000 11.812500000000 3.197999000549 185 185 185
11.390625000000 11.812500000000 3.259999275208 188 188 188
11.375000000000 11.812500000000 3.317999839783 205 205 205
11.234375000000 11.687500000000 3.335000038147 191 191 191
11.375000000000 11.937500000000 3.193999290466 181 181 181
11.375000000000 11.937500000000 3.255999565125 191 191 191
11.359375000000 11.937500000000 3.311999320984 201 201 201
11.218750000000 11.812500000000 3.331999778748 186 186 186
11.343750000000 12.062500000000 3.188000679016 119 119 119
11.343750000000 12.062500000000 3.248999595642 191 191 191
11.343750000000 12.062500000000 3.310000419617 200 200 200
11.203125000000 12.000000000000 3.331000328064 180 180 180
11.312500000000 12.187500000000 3.178999900818 51 51 51
11.328125000000 12.187500000000 3.244999885559 190 190 190
11.328125000000 12.187500000000 3.308999061584 206 206 206
11.218750000000 12.125000000000 3.335000038147 174 174 174
11.281250000000 12.312500000000 3.234999656677 197 197 197
11.296875000000 12.312500000000 3.301999092102 199 199 199
11.203125000000 12.250000000000 3.331999778748 142 142 142
11.281250000000 12.437500000000 3.230999946594 198 198 198
11.281250000000 12.437500000000 3.293000221252 203 203 203
11.187500000000 12.375000000000 3.327000617981 180 180 180
11.250000000000 12.625000000000 3.223000526428 198 198 198
11.250000000000 12.625000000000 3.287999153137 198 198 198
11.156250000000 12.562500000000 3.322999000549 136 136 136
11.218750000000 12.750000000000 3.213999748230 204 204 204
11.218750000000 12.750000000000 3.279000282288 209 209 209
11.156250000000 12.687500000000 3.324000358582 123 123 123
11.187500000000 12.875000000000 3.209000587463 200 200 200
11.187500000000 12.875000000000 3.272999763489 202 202 202
11.140625000000 12.812500000000 3.317999839783 139 139 139
11.171875000000 13.000000000000 3.199000358582 195 195 195
11.171875000000 13.000000000000 3.265999794006 192 192 192
11.140625000000 13.000000000000 3.317999839783 129 129 129
11.140625000000 13.125000000000 3.192999839783 195 195 195
11.125000000000 13.125000000000 3.255000114441 224 224 224
11.109375000000 13.125000000000 3.311999320984 129 129 129
11.109375000000 13.250000000000 3.185000419617 190 190 190
11.125000000000 13.250000000000 3.249999046326 226 226 226
11.109375000000 13.250000000000 3.314000129700 118 118 118
11.093750000000 13.375000000000 3.182000160217 189 189 189
11.093750000000 13.375000000000 3.245999336243 224 224 224
11.078125000000 13.375000000000 3.308999061584 132 132 132
11.062500000000 13.625000000000 3.172999382019 67 67 67
11.062500000000 13.625000000000 3.238999366760 118 118 118
11.046875000000 13.562500000000 3.296999931335 87 87 87
11.500000000000 6.562500000000 3.390000343323 92 92 92
11.468750000000 6.562500000000 3.325999259949 100 100 100
11.468750000000 6.562500000000 3.262000083923 85 85 85
11.468750000000 6.562500000000 3.196999549866 88 88 88
11.515625000000 6.687500000000 3.401000022888 141 141 141
11.562500000000 6.625000000000 3.352999687195 145 145 145
11.578125000000 6.625000000000 3.293000221252 137 137 137
11.578125000000 6.625000000000 3.227000236511 132 132 132
11.500000000000 6.812500000000 3.401000022888 162 162 162
11.562500000000 6.812500000000 3.351000785828 139 139 139
11.562500000000 6.812500000000 3.286999702454 139 139 139
11.562500000000 6.812500000000 3.226000785828 134 134 134
11.531250000000 6.937500000000 3.346999168396 137 137 137
11.531250000000 6.937500000000 3.282999992371 134 134 134
11.531250000000 6.937500000000 3.217999458313 129 129 129
11.531250000000 7.125000000000 3.345000267029 167 167 167
11.531250000000 7.125000000000 3.279999732971 168 168 168
11.531250000000 7.125000000000 3.217000007629 164 164 164
11.562500000000 7.250000000000 3.359000205994 167 167 167
11.578125000000 7.250000000000 3.297999382019 163 163 163
11.562500000000 7.250000000000 3.233000755310 165 165 165
12.437500000000 6.750000000000 3.407000541687 118 118 118
12.484375000000 6.687500000000 3.377999305725 162 162 162
12.484375000000 6.687500000000 3.328000068665 168 168 168
12.484375000000 6.687500000000 3.279000282288 155 155 155
12.484375000000 6.687500000000 3.226000785828 165 165 165
12.484375000000 6.687500000000 3.172999382019 156 156 156
11.828125000000 7.187500000000 3.439000129700 121 121 121
11.875000000000 7.125000000000 3.393000602722 138 138 138
11.890625000000 7.125000000000 3.336998939514 135 135 135
11.875000000000 7.125000000000 3.277998924255 135 135 135
12.406250000000 6.875000000000 3.401000022888 135 135 135
12.484375000000 6.812500000000 3.380000114441 166 166 166
12.484375000000 6.812500000000 3.328000068665 166 166 166
12.484375000000 6.812500000000 3.276000022888 169 169 169
12.500000000000 6.812500000000 3.227000236511 168 168 168
12.484375000000 6.812500000000 3.174000740051 156 156 156
11.906250000000 7.125000000000 2.866000175476 138 138 138
11.921875000000 7.125000000000 2.807000160217 137 137 137
11.921875000000 7.125000000000 2.748999595642 138 138 138
11.828125000000 7.312500000000 3.439000129700 95 95 95
12.031250000000 7.250000000000 3.438000679016 100 100 100
12.078125000000 7.187500000000 3.404000282288 151 151 151
12.093750000000 7.187500000000 3.352000236511 138 138 138
12.109375000000 7.187500000000 3.300000190735 143 143 143
12.437500000000 7.000000000000 3.362000465393 162 162 162
12.437500000000 7.000000000000 3.310000419617 164 164 164
12.437500000000 7.000000000000 3.258000373840 162 162 162
12.406250000000 7.000000000000 3.199000358582 183 183 183
12.109375000000 7.187500000000 2.960000038147 163 163 163
12.125000000000 7.187500000000 2.904000282288 162 162 162
12.125000000000 7.187500000000 2.845999717712 165 165 165
12.109375000000 7.187500000000 2.782000541687 165 165 165
12.125000000000 7.187500000000 2.727999687195 159 159 159
11.937500000000 7.250000000000 2.565999031067 101 101 101
11.937500000000 7.250000000000 2.500000000000 110 110 110
11.828125000000 7.437500000000 3.440999031067 96 96 96
12.000000000000 7.375000000000 3.435999870300 97 97 97
12.125000000000 7.312500000000 3.415999412537 161 161 161
12.125000000000 7.312500000000 3.363999366760 155 155 155
12.218750000000 7.250000000000 3.338999748230 133 133 133
12.312500000000 7.187500000000 3.322999000549 114 114 114
12.312500000000 7.187500000000 3.270998954773 114 114 114
12.312500000000 7.187500000000 3.214999198914 109 109 109
12.125000000000 7.312500000000 3.084000587463 155 155 155
12.125000000000 7.312500000000 3.020998954773 161 161 161
12.125000000000 7.312500000000 2.961998939514 156 156 156
12.125000000000 7.312500000000 2.905999183655 155 155 155
12.109375000000 7.312500000000 2.842000007629 154 154 154
12.109375000000 7.312500000000 2.783999443054 149 149 149
12.125000000000 7.312500000000 2.724999427795 151 151 151
12.000000000000 7.375000000000 2.605000495911 130 130 130
12.000000000000 7.375000000000 2.543999671936 124 124 124
11.578125000000 7.812500000000 3.369999885559 121 121 121
12.000000000000 7.500000000000 3.436999320984 94 94 94
12.093750000000 7.437500000000 3.414999961853 163 163 163
12.109375000000 7.437500000000 3.360999107361 154 154 154
12.250000000000 7.375000000000 3.353999137878 157 157 157
12.234375000000 7.375000000000 3.296999931335 156 156 156
12.250000000000 7.375000000000 3.244999885559 151 151 151
12.187500000000 7.437500000000 3.171000480652 126 126 126
12.093750000000 7.500000000000 3.074999809265 114 114 114
12.093750000000 7.437500000000 3.019999504089 125 125 125
12.093750000000 7.500000000000 2.960999488831 142 142 142
12.093750000000 7.500000000000 2.900000572205 104 104 104
12.093750000000 7.500000000000 2.836998939514 109 109 109
12.093750000000 7.500000000000 2.782000541687 123 123 123
12.015625000000 7.500000000000 2.682999610901 142 142 142
11.546875000000 7.937500000000 3.365000724792 183 183 183
11.546875000000 7.937500000000 3.303000450134 200 200 200
11.546875000000 7.937500000000 3.237000465393 195 195 195
12.218750000000 7.562500000000 3.352000236511 150 150 150
12.218750000000 7.562500000000 3.297999382019 141 141 141
12.218750000000 7.562500000000 3.240000724792 143 143 143
12.156250000000 7.562500000000 3.161999702454 83 83 83
12.062500000000 7.625000000000 3.063000679016 86 86 86
12.078125000000 7.625000000000 3.011000633240 90 90 90
12.046875000000 7.625000000000 2.942000389099 102 102 102
12.062500000000 7.625000000000 2.887000083923 109 109 109
12.078125000000 7.625000000000 2.831999778748 107 107 107
12.062500000000 7.625000000000 2.765000343323 116 116 116
11.531250000000 8.125000000000 3.363999366760 207 207 207
11.531250000000 8.125000000000 3.300999641418 224 224 224
11.531250000000 8.125000000000 3.237000465393 209 209 209
12.203125000000 7.687500000000 3.342999458313 149 149 149
12.203125000000 7.687500000000 3.290999412537 141 141 141
12.203125000000 7.687500000000 3.234999656677 142 142 142
11.531250000000 8.250000000000 3.363999366760 214 214 214
11.531250000000 8.250000000000 3.300000190735 223 223 223
11.531250000000 8.250000000000 3.238999366760 203 203 203
12.187500000000 7.875000000000 3.338999748230 144 144 144
12.171875000000 7.875000000000 3.282000541687 140 140 140
12.187500000000 7.875000000000 3.227999687195 140 140 140
11.531250000000 8.375000000000 3.363999366760 208 208 208
11.515625000000 8.437500000000 3.296999931335 227 227 227
11.531250000000 8.375000000000 3.237000465393 188 188 188
12.140625000000 8.000000000000 3.325999259949 223 223 223
12.125000000000 8.000000000000 3.269999504089 224 224 224
12.140625000000 8.000000000000 3.217000007629 211 211 211
11.531250000000 8.562500000000 3.365000724792 203 203 203
11.500000000000 8.562500000000 3.296000480652 228 228 228
11.515625000000 8.562500000000 3.235999107361 182 182 182
12.109375000000 8.187500000000 3.374999046326 115 115 115
12.109375000000 8.187500000000 3.317000389099 224 224 224
12.109375000000 8.187500000000 3.262999534607 221 221 221
12.125000000000 8.187500000000 3.210999488831 166 166 166
11.500000000000 8.687500000000 3.363999366760 206 206 206
11.500000000000 8.687500000000 3.294999122620 229 229 229
11.500000000000 8.687500000000 3.237999916077 178 178 178
12.093750000000 8.312500000000 3.366000175476 181 181 181
12.093750000000 8.375000000000 3.310000419617 222 222 222
12.093750000000 8.312500000000 3.255000114441 221 221 221
12.078125000000 8.375000000000 3.195000648499 23 23 23
11.500000000000 8.812500000000 3.362000465393 206 206 206
11.500000000000 8.875000000000 3.296000480652 229 229 229
11.500000000000 8.875000000000 3.234999656677 192 192 192
12.062500000000 8.500000000000 3.359000205994 204 204 204
12.046875000000 8.500000000000 3.300999641418 219 219 219
12.046875000000 8.500000000000 3.242999076843 222 222 222
11.500000000000 9.000000000000 3.360999107361 206 206 206
11.500000000000 9.000000000000 3.299000740051 194 194 194
11.500000000000 9.000000000000 3.234000205994 172 172 172
12.031250000000 8.687500000000 3.348000526428 221 221 221
12.031250000000 8.687500000000 3.290999412537 222 222 222
12.015625000000 8.687500000000 3.234000205994 219 219 219
11.484375000000 9.125000000000 3.360999107361 209 209 209
11.484375000000 9.125000000000 3.297999382019 203 203 203
11.484375000000 9.125000000000 3.235999107361 153 153 153
11.984375000000 8.812500000000 3.338999748230 224 224 224
11.984375000000 8.812500000000 3.282999992371 221 221 221
11.984375000000 8.812500000000 3.224999427795 221 221 221
11.484375000000 9.312500000000 3.359000205994 204 204 204
11.468750000000 9.312500000000 3.292000770569 227 227 227
11.484375000000 9.312500000000 3.230999946594 147 147 147
11.968750000000 9.000000000000 3.331999778748 221 221 221
11.953125000000 9.000000000000 3.272999763489 222 222 222
11.968750000000 9.000000000000 3.217000007629 210 210 210
11.468750000000 9.437500000000 3.359000205994 202 202 202
11.468750000000 9.437500000000 3.289999961853 228 228 228
11.468750000000 9.437500000000 3.233000755310 146 146 146
11.937500000000 9.125000000000 3.322999000549 224 224 224
11.937500000000 9.125000000000 3.266999244690 211 211 211
11.937500000000 9.125000000000 3.209000587463 175 175 175
11.468750000000 9.562500000000 3.356999397278 210 210 210
11.453125000000 9.562500000000 3.289000511169 226 226 226
11.625000000000 9.500000000000 3.282000541687 122 122 122
11.890625000000 9.312500000000 3.314000129700 226 226 226
11.906250000000 9.312500000000 3.258999824524 220 220 220
11.890625000000 9.312500000000 3.195000648499 76 76 76
11.468750000000 9.750000000000 3.356999397278 205 205 205
11.437500000000 9.750000000000 3.287999153137 225 225 225
11.843750000000 9.562500000000 3.355000495911 138 138 138
11.875000000000 9.500000000000 3.310000419617 223 223 223
11.875000000000 9.500000000000 3.247000694275 229 229 229
11.437500000000 9.875000000000 3.353999137878 209 209 209
11.421875000000 9.875000000000 3.286000251770 223 223 223
11.828125000000 9.687500000000 3.353999137878 180 180 180
11.843750000000 9.687500000000 3.300999641418 224 224 224
11.843750000000 9.687500000000 3.241999626160 219 219 219
11.437500000000 10.062500000000 3.352999687195 216 216 216
11.421875000000 10.062500000000 3.285000801086 226 226 226
11.828125000000 9.812500000000 3.351000785828 199 199 199
11.828125000000 9.812500000000 3.294999122620 224 224 224
11.828125000000 9.812500000000 3.234999656677 220 220 220
11.421875000000 10.187500000000 3.353999137878 194 194 194
11.406250000000 10.187500000000 3.283999443054 222 222 222
11.812500000000 10.000000000000 3.346999168396 213 213 213
11.812500000000 10.000000000000 3.287999153137 224 224 224
11.812500000000 10.000000000000 3.230000495911 219 219 219
11.421875000000 10.312500000000 3.348000526428 222 222 222
11.406250000000 10.312500000000 3.282000541687 220 220 220
11.781250000000 10.125000000000 3.339999198914 219 219 219
11.781250000000 10.125000000000 3.280999183655 220 220 220
11.781250000000 10.125000000000 3.220999717712 217 217 217
11.406250000000 10.500000000000 3.344000816345 222 222 222
11.406250000000 10.500000000000 3.280999183655 217 217 217
11.765625000000 10.312500000000 3.332999229431 221 221 221
11.750000000000 10.312500000000 3.272000312805 224 224 224
11.750000000000 10.312500000000 3.213000297546 212 212 212
11.390625000000 10.625000000000 3.339999198914 224 224 224
11.390625000000 10.625000000000 3.276999473572 219 219 219
11.718750000000 10.437500000000 3.324000358582 223 223 223
11.718750000000 10.437500000000 3.262999534607 223 223 223
11.734375000000 10.437500000000 3.206999778748 174 174 174
11.375000000000 10.812500000000 3.339999198914 223 223 223
11.375000000000 10.812500000000 3.273999214172 223 223 223
11.718750000000 10.625000000000 3.321000099182 223 223 223
11.703125000000 10.625000000000 3.258000373840 220 220 220
11.703125000000 10.625000000000 3.195000648499 94 94 94
11.359375000000 10.937500000000 3.336998939514 220 220 220
11.359375000000 10.937500000000 3.270998954773 226 226 226
11.687500000000 10.750000000000 3.314000129700 219 219 219
11.671875000000 10.750000000000 3.251000404358 220 220 220
11.406250000000 11.062500000000 3.348999977112 189 189 189
11.375000000000 11.062500000000 3.276999473572 221 221 221
11.656250000000 10.937500000000 3.304999351501 222 222 222
11.656250000000 10.937500000000 3.244999885559 219 219 219
11.562500000000 11.125000000000 3.516999244690 112 112 112
11.562500000000 11.125000000000 3.453000068665 148 148 148
11.562500000000 11.125000000000 3.394999504089 151 151 151
11.562500000000 11.125000000000 3.334000587463 178 178 178
11.625000000000 11.062500000000 3.297999382019 220 220 220
11.625000000000 11.062500000000 3.234999656677 221 221 221
11.359375000000 11.375000000000 3.338000297546 219 219 219
11.500000000000 11.312500000000 3.321999549866 214 214 214
11.609375000000 11.250000000000 3.293000221252 212 212 212
11.609375000000 11.250000000000 3.230000495911 216 216 216
11.343750000000 11.500000000000 3.334000587463 219 219 219
11.546875000000 11.437500000000 3.332999229431 210 210 210
11.578125000000 11.375000000000 3.283999443054 223 223 223
11.578125000000 11.375000000000 3.221999168396 219 219 219
11.343750000000 11.687500000000 3.332999229431 217 217 217
11.531250000000 11.562500000000 3.328000068665 216 216 216
11.531250000000 11.562500000000 3.269999504089 184 184 184
11.531250000000 11.562500000000 3.206000328064 179 179 179
11.328125000000 11.812500000000 3.332999229431 214 214 214
11.515625000000 11.750000000000 3.327000617981 210 210 210
11.500000000000 11.750000000000 3.262000083923 168 168 168
11.500000000000 11.750000000000 3.197999000549 140 140 140
11.312500000000 12.000000000000 3.329998970032 212 212 212
11.468750000000 11.875000000000 3.317000389099 210 210 210
11.468750000000 11.875000000000 3.254000663757 192 192 192
11.468750000000 11.875000000000 3.188000679016 18 18 18
11.312500000000 12.125000000000 3.327000617981 217 217 217
11.453125000000 12.062500000000 3.308999061584 207 207 207
11.453125000000 12.062500000000 3.245999336243 194 194 194
11.296875000000 12.250000000000 3.322999000549 216 216 216
11.421875000000 12.187500000000 3.300000190735 210 210 210
11.421875000000 12.187500000000 3.234999656677 204 204 204
11.296875000000 12.437500000000 3.321999549866 216 216 216
11.406250000000 12.375000000000 3.290999412537 187 187 187
11.375000000000 12.375000000000 3.224999427795 209 209 209
11.265625000000 12.562500000000 3.317000389099 216 216 216
11.359375000000 12.500000000000 3.282000541687 191 191 191
11.359375000000 12.500000000000 3.216000556946 207 207 207
11.281250000000 12.687500000000 3.315999031067 212 212 212
11.343750000000 12.687500000000 3.272000312805 174 174 174
11.312500000000 12.687500000000 3.206000328064 188 188 188
11.265625000000 12.875000000000 3.318999290466 207 207 207
11.296875000000 12.812500000000 3.261000633240 198 198 198
11.296875000000 12.812500000000 3.197999000549 153 153 153
11.265625000000 13.000000000000 3.314999580383 209 209 209
11.281250000000 13.000000000000 3.255999565125 195 195 195
11.265625000000 13.000000000000 3.186999320984 77 77 77
11.250000000000 13.187500000000 3.313000679016 210 210 210
11.250000000000 13.187500000000 3.247000694275 225 225 225
11.218750000000 13.187500000000 3.176999092102 19 19 19
11.218750000000 13.312500000000 3.304999351501 209 209 209
11.218750000000 13.312500000000 3.241000175476 219 219 219
11.203125000000 13.500000000000 3.301999092102 210 210 210
11.203125000000 13.500000000000 3.235999107361 215 215 215
11.125000000000 13.437500000000 3.294999122620 81 81 81
11.125000000000 13.437500000000 3.227999687195 82 82 82
11.125000000000 13.250000000000 3.294999122620 192 192 192
11.125000000000 13.250000000000 3.230000495911 218 218 218
11.109375000000 13.312500000000 3.161999702454 36 36 36
11.140625000000 13.125000000000 3.296000480652 189 189 189
11.140625000000 13.125000000000 3.234999656677 219 219 219
11.140625000000 13.125000000000 3.167000770569 72 72 72
11.171875000000 13.000000000000 3.303000450134 192 192 192
11.171875000000 13.000000000000 3.241000175476 214 214 214
11.171875000000 13.000000000000 3.174000740051 134 134 134
11.156250000000 12.875000000000 3.300999641418 191 191 191
11.203125000000 12.812500000000 3.248999595642 171 171 171
11.187500000000 12.875000000000 3.182000160217 173 173 173
11.187500000000 12.687500000000 3.303999900818 196 196 196
11.218750000000 12.687500000000 3.252999305725 177 177 177
11.218750000000 12.687500000000 3.185999870300 195 195 195
11.187500000000 12.562500000000 3.307000160217 197 197 197
11.250000000000 12.562500000000 3.262999534607 192 192 192
11.234375000000 12.562500000000 3.195000648499 203 203 203
11.203125000000 12.437500000000 3.308999061584 190 190 190
11.281250000000 12.375000000000 3.270998954773 204 204 204
11.281250000000 12.375000000000 3.206999778748 206 206 206
11.203125000000 12.312500000000 3.311999320984 196 196 196
11.312500000000 12.250000000000 3.279000282288 186 186 186
11.312500000000 12.250000000000 3.213000297546 200 200 200
11.234375000000 12.187500000000 3.314000129700 205 205 205
11.343750000000 12.125000000000 3.285000801086 208 208 208
11.343750000000 12.125000000000 3.224999427795 198 198 198
11.234375000000 12.062500000000 3.315999031067 212 212 212
11.375000000000 11.937500000000 3.294999122620 207 207 207
11.359375000000 11.937500000000 3.230000495911 191 191 191
11.250000000000 11.875000000000 3.315999031067 211 211 211
11.390625000000 11.812500000000 3.300999641418 207 207 207
11.390625000000 11.812500000000 3.237999916077 201 201 201
11.250000000000 11.750000000000 3.315999031067 212 212 212
11.437500000000 11.687500000000 3.307999610901 209 209 209
11.421875000000 11.687500000000 3.244999885559 180 180 180
11.406250000000 11.687500000000 3.178000450134 120 120 120
11.250000000000 11.625000000000 3.317000389099 214 214 214
11.437500000000 11.500000000000 3.310000419617 211 211 211
11.437500000000 11.500000000000 3.248999595642 196 196 196
11.437500000000 11.500000000000 3.185999870300 167 167 167
11.265625000000 11.500000000000 3.317999839783 217 217 217
11.453125000000 11.375000000000 3.307000160217 210 210 210
11.500000000000 11.375000000000 3.262000083923 217 217 217
11.500000000000 11.375000000000 3.199000358582 213 213 213
11.281250000000 11.312500000000 3.321000099182 214 214 214
11.453125000000 11.250000000000 3.310000419617 210 210 210
11.531250000000 11.250000000000 3.272000312805 201 201 201
11.500000000000 11.250000000000 3.203999519348 216 216 216
11.296875000000 11.187500000000 3.321999549866 210 210 210
11.437500000000 11.125000000000 3.303000450134 204 204 204
11.531250000000 11.062500000000 3.272999763489 214 214 214
11.531250000000 11.062500000000 3.213000297546 220 220 220
11.453125000000 11.000000000000 3.491000175476 26 26 26
11.500000000000 11.000000000000 3.442999839783 119 119 119
11.484375000000 11.000000000000 3.377999305725 129 129 129
11.453125000000 11.000000000000 3.310000419617 182 182 182
11.562500000000 10.937500000000 3.280999183655 219 219 219
11.562500000000 10.937500000000 3.219000816345 221 221 221
11.328125000000 10.937500000000 3.331999778748 196 196 196
11.296875000000 10.937500000000 3.258999824524 220 220 220
11.593750000000 10.812500000000 3.286999702454 221 221 221
11.593750000000 10.812500000000 3.227000236511 219 219 219
11.281250000000 10.812500000000 3.320000648499 219 219 219
11.281250000000 10.812500000000 3.255000114441 223 223 223
11.609375000000 10.625000000000 3.294999122620 221 221 221
11.609375000000 10.625000000000 3.233000755310 220 220 220
11.296875000000 10.687500000000 3.321000099182 220 220 220
11.296875000000 10.687500000000 3.255999565125 227 227 227
11.625000000000 10.500000000000 3.300999641418 220 220 220
11.625000000000 10.500000000000 3.238999366760 220 220 220
11.625000000000 10.500000000000 3.172999382019 126 126 126
11.312500000000 10.562500000000 3.322999000549 222 222 222
11.312500000000 10.562500000000 3.258999824524 219 219 219
11.656250000000 10.375000000000 3.306000709534 223 223 223
11.656250000000 10.375000000000 3.247000694275 220 220 220
11.656250000000 10.375000000000 3.185000419617 175 175 175
11.312500000000 10.375000000000 3.324000358582 223 223 223
11.312500000000 10.375000000000 3.259999275208 207 207 207
11.687500000000 10.250000000000 3.310999870300 219 219 219
11.687500000000 10.250000000000 3.251000404358 221 221 221
11.687500000000 10.250000000000 3.192000389099 204 204 204
11.312500000000 10.250000000000 3.324000358582 222 222 222
11.312500000000 10.250000000000 3.261000633240 218 218 218
11.703125000000 10.062500000000 3.314999580383 219 219 219
11.703125000000 10.062500000000 3.258999824524 220 220 220
11.703125000000 10.062500000000 3.196999549866 213 213 213
11.343750000000 10.125000000000 3.328000068665 203 203 203
11.343750000000 10.125000000000 3.263998985291 217 217 217
11.734375000000 9.937500000000 3.324000358582 215 215 215
11.718750000000 9.937500000000 3.261000633240 225 225 225
11.718750000000 9.937500000000 3.203000068665 216 216 216
11.343750000000 10.000000000000 3.328999519348 205 205 205
11.343750000000 10.000000000000 3.265000343323 217 217 217
11.750000000000 9.812500000000 3.327000617981 207 207 207
11.750000000000 9.812500000000 3.269000053406 222 222 222
11.750000000000 9.812500000000 3.210000038147 219 219 219
11.359375000000 9.875000000000 3.329998970032 205 205 205
11.359375000000 9.875000000000 3.265000343323 224 224 224
11.765625000000 9.625000000000 3.331999778748 195 195 195
11.765625000000 9.625000000000 3.273999214172 221 221 221
11.765625000000 9.625000000000 3.216000556946 217 217 217
11.375000000000 9.687500000000 3.334000587463 205 205 205
11.359375000000 9.687500000000 3.266999244690 224 224 224
11.781250000000 9.500000000000 3.339999198914 163 163 163
11.781250000000 9.500000000000 3.282999992371 221 221 221
11.781250000000 9.500000000000 3.221999168396 221 221 221
11.375000000000 9.562500000000 3.334000587463 206 206 206
11.375000000000 9.562500000000 3.270998954773 222 222 222
11.750000000000 9.375000000000 3.327000617981 137 137 137
11.812500000000 9.375000000000 3.287999153137 221 221 221
11.812500000000 9.375000000000 3.228999137878 219 219 219
11.375000000000 9.437500000000 3.335999488831 204 204 204
11.375000000000 9.437500000000 3.269999504089 224 224 224
11.515625000000 9.375000000000 3.251000404358 117 117 117
11.843750000000 9.187500000000 3.296000480652 221 221 221
11.843750000000 9.187500000000 3.238999366760 221 221 221
11.828125000000 9.250000000000 3.175000190735 118 118 118
11.406250000000 9.312500000000 3.338000297546 200 200 200
11.390625000000 9.312500000000 3.272999763489 222 222 222
11.406250000000 9.312500000000 3.213000297546 134 134 134
11.875000000000 9.062500000000 3.303999900818 217 217 217
11.875000000000 9.062500000000 3.245999336243 214 214 214
11.875000000000 9.062500000000 3.189999580383 174 174 174
11.406250000000 9.187500000000 3.339999198914 202 202 202
11.406250000000 9.187500000000 3.273999214172 222 222 222
11.406250000000 9.187500000000 3.213000297546 140 140 140
11.906250000000 8.875000000000 3.311999320984 219 219 219
11.875000000000 8.875000000000 3.251000404358 222 222 222
11.906250000000 8.875000000000 3.196999549866 210 210 210
11.421875000000 9.000000000000 3.341000556946 206 206 206
11.406250000000 9.062500000000 3.275000572205 213 213 213
11.453125000000 9.000000000000 3.227000236511 114 114 114
11.921875000000 8.750000000000 3.317000389099 219 219 219
11.921875000000 8.750000000000 3.261000633240 218 218 218
11.921875000000 8.750000000000 3.202000617981 218 218 218
11.421875000000 8.875000000000 3.342000007629 202 202 202
11.406250000000 8.875000000000 3.276999473572 145 145 145
11.406250000000 8.875000000000 3.213000297546 182 182 182
11.953125000000 8.562500000000 3.327000617981 216 216 216
11.937500000000 8.562500000000 3.269000053406 219 219 219
11.953125000000 8.562500000000 3.214999198914 217 217 217
11.421875000000 8.750000000000 3.341000556946 202 202 202
11.421875000000 8.750000000000 3.277998924255 225 225 225
11.421875000000 8.750000000000 3.216000556946 180 180 180
11.984375000000 8.437500000000 3.332999229431 208 208 208
11.968750000000 8.437500000000 3.275000572205 221 221 221
11.968750000000 8.437500000000 3.219000816345 223 223 223
11.437500000000 8.625000000000 3.342000007629 203 203 203
11.421875000000 8.625000000000 3.276000022888 224 224 224
11.421875000000 8.625000000000 3.213000297546 182 182 182
12.015625000000 8.250000000000 3.342999458313 184 184 184
12.000000000000 8.250000000000 3.285000801086 219 219 219
12.000000000000 8.312500000000 3.228999137878 221 221 221
11.437500000000 8.500000000000 3.342000007629 208 208 208
11.437500000000 8.500000000000 3.277998924255 221 221 221
11.437500000000 8.500000000000 3.214999198914 185 185 185
12.046875000000 8.125000000000 3.349999427795 111 111 111
12.046875000000 8.125000000000 3.293000221252 217 217 217
12.031250000000 8.125000000000 3.235999107361 221 221 221
12.031250000000 8.125000000000 3.182000160217 160 160 160
11.437500000000 8.375000000000 3.342000007629 204 204 204
11.437500000000 8.375000000000 3.275000572205 223 223 223
11.437500000000 8.375000000000 3.214999198914 174 174 174
12.078125000000 8.000000000000 3.359000205994 50 50 50
12.062500000000 8.000000000000 3.301999092102 219 219 219
12.046875000000 8.000000000000 3.241000175476 222 222 222
12.062500000000 8.000000000000 3.189999580383 200 200 200
11.453125000000 8.187500000000 3.342000007629 215 215 215
11.453125000000 8.187500000000 3.276999473572 223 223 223
11.453125000000 8.187500000000 3.213999748230 197 197 197
12.093750000000 7.812500000000 3.310000419617 132 132 132
12.093750000000 7.812500000000 3.255999565125 139 139 139
12.093750000000 7.812500000000 3.199000358582 138 138 138
11.468750000000 8.062500000000 3.345000267029 208 208 208
11.437500000000 8.062500000000 3.276999473572 225 225 225
11.453125000000 8.062500000000 3.217000007629 201 201 201
12.125000000000 7.687500000000 3.317000389099 131 131 131
12.109375000000 7.687500000000 3.262000083923 127 127 127
12.109375000000 7.687500000000 3.206000328064 135 135 135
11.468750000000 7.937500000000 3.344000816345 203 203 203
11.468750000000 7.937500000000 3.279999732971 224 224 224
11.468750000000 7.937500000000 3.217999458313 207 207 207
12.156250000000 7.562500000000 3.324000358582 129 129 129
12.125000000000 7.562500000000 3.268000602722 132 132 132
12.125000000000 7.562500000000 3.213000297546 134 134 134
11.484375000000 7.812500000000 3.349999427795 117 117 117
11.468750000000 7.812500000000 3.282000541687 155 155 155
12.000000000000 7.500000000000 3.386000633240 142 142 142
12.015625000000 7.500000000000 3.335000038147 150 150 150
12.171875000000 7.375000000000 3.329998970032 148 148 148
12.171875000000 7.375000000000 3.275000572205 135 135 135
12.156250000000 7.437500000000 3.217999458313 140 140 140
12.078125000000 7.437500000000 3.130999565125 151 151 151
12.015625000000 7.500000000000 3.050999641418 159 159 159
12.015625000000 7.500000000000 2.992999076843 156 156 156
12.015625000000 7.500000000000 2.933999061584 156 156 156
12.000000000000 7.500000000000 2.870999336243 157 157 157
12.000000000000 7.500000000000 2.811999320984 154 154 154
12.000000000000 7.500000000000 2.754000663757 153 153 153
11.984375000000 7.500000000000 2.682999610901 159 159 159
11.500000000000 7.687500000000 3.348999977112 115 115 115
11.921875000000 7.375000000000 3.412999153137 91 91 91
12.031250000000 7.312500000000 3.390000343323 158 158 158
12.046875000000 7.312500000000 3.338000297546 155 155 155
12.156250000000 7.250000000000 3.328000068665 130 130 130
12.156250000000 7.250000000000 3.270998954773 144 144 144
12.156250000000 7.250000000000 3.213000297546 150 150 150
12.156250000000 7.250000000000 3.161000251770 105 105 105
12.031250000000 7.312500000000 3.056000709534 131 131 131
12.031250000000 7.312500000000 2.992999076843 138 138 138
12.031250000000 7.312500000000 2.940999031067 169 169 169
12.031250000000 7.312500000000 2.877999305725 132 132 132
12.031250000000 7.312500000000 2.818999290466 129 129 129
12.031250000000 7.312500000000 2.763998985291 127 127 127
12.000000000000 7.375000000000 2.688000679016 110 110 110
11.734375000000 7.437500000000 3.414999961853 97 97 97
11.906250000000 7.250000000000 3.408999443054 89 89 89
12.046875000000 7.187500000000 3.395998954773 155 155 155
12.062500000000 7.187500000000 3.345999717712 153 153 153
12.062500000000 7.187500000000 3.293999671936 146 146 146
12.265625000000 7.125000000000 3.306000709534 89 89 89
12.265625000000 7.062500000000 3.255999565125 88 88 88
12.250000000000 7.125000000000 3.196999549866 87 87 87
12.140625000000 7.125000000000 3.096999168396 146 146 146
12.046875000000 7.187500000000 3.004000663757 155 155 155
12.031250000000 7.187500000000 2.942000389099 160 160 160
12.046875000000 7.187500000000 2.886000633240 155 155 155
12.031250000000 7.187500000000 2.824000358582 153 153 153
12.031250000000 7.187500000000 2.762000083923 154 154 154
12.046875000000 7.187500000000 2.706999778748 151 151 151
11.937500000000 7.250000000000 2.588000297546 139 139 139
11.937500000000 7.250000000000 2.524000167847 131 131 131
11.734375000000 7.250000000000 3.414999961853 92 92 92
11.921875000000 7.125000000000 3.411000251770 86 86 86
12.015625000000 7.062500000000 3.384999275208 146 146 146
12.031250000000 7.062500000000 3.334000587463 145 145 145
12.031250000000 7.062500000000 3.279999732971 144 144 144
12.328125000000 6.937500000000 3.331999778748 151 151 151
12.343750000000 6.937500000000 3.283999443054 159 159 159
12.359375000000 6.937500000000 3.234999656677 154 154 154
12.343750000000 6.937500000000 3.179999351501 170 170 170
12.296875000000 6.937500000000 3.103999137878 182 182 182
12.046875000000 7.062500000000 2.942999839783 162 162 162
12.046875000000 7.062500000000 2.884999275208 162 162 162
12.046875000000 7.062500000000 2.822999000549 162 162 162
12.062500000000 7.062500000000 2.768000602722 161 161 161
12.062500000000 7.062500000000 2.710000038147 159 159 159
11.843750000000 7.125000000000 2.545000076294 100 100 100
11.750000000000 7.125000000000 3.415999412537 97 97 97
11.828125000000 7.062500000000 3.381999015808 141 141 141
11.828125000000 7.062500000000 3.322999000549 139 139 139
11.828125000000 7.062500000000 3.265999794006 136 136 136
12.265625000000 6.812500000000 3.352999687195 134 134 134
12.406250000000 6.750000000000 3.358000755310 160 160 160
12.437500000000 6.750000000000 3.310000419617 164 164 164
12.437500000000 6.750000000000 3.258000373840 165 165 165
12.406250000000 6.750000000000 3.203999519348 162 162 162
12.437500000000 6.750000000000 3.157000541687 159 159 159
11.843750000000 7.000000000000 2.859999656677 136 136 136
11.843750000000 7.000000000000 2.797999382019 139 139 139
11.875000000000 7.000000000000 2.738999366760 137 137 137
11.515625000000 7.125000000000 3.346999168396 172 172 172
11.515625000000 7.125000000000 3.286999702454 167 167 167
11.515625000000 7.125000000000 3.223000526428 158 158 158
12.343750000000 6.687500000000 3.383999824524 62 62 62
12.421875000000 6.625000000000 3.358000755310 161 161 161
12.421875000000 6.625000000000 3.310000419617 165 165 165
12.468750000000 6.625000000000 3.272000312805 162 162 162
12.421875000000 6.625000000000 3.206000328064 166 166 166
12.437500000000 6.625000000000 3.157000541687 161 161 161
11.453125000000 7.000000000000 3.334000587463 171 171 171
11.453125000000 7.000000000000 3.269000053406 164 164 164
11.453125000000 7.000000000000 3.204998970032 168 168 168
12.343750000000 6.500000000000 3.332999229431 110 110 110
12.343750000000 6.500000000000 3.277998924255 108 108 108
12.343750000000 6.500000000000 3.223000526428 119 119 119
12.343750000000 6.500000000000 3.174000740051 115 115 115
11.453125000000 6.875000000000 3.328000068665 130 130 130
11.453125000000 6.875000000000 3.265000343323 132 132 132
11.437500000000 6.875000000000 3.197999000549 130 130 130
11.421875000000 6.750000000000 3.383000373840 113 113 113
11.468750000000 6.750000000000 3.334000587463 135 135 135
11.484375000000 6.750000000000 3.273999214172 132 132 132
11.468750000000 6.750000000000 3.206000328064 132 132 132
11.437500000000 6.625000000000 3.384999275208 117 117 117
11.484375000000 6.625000000000 3.334000587463 138 138 138
11.500000000000 6.625000000000 3.272999763489 138 138 138
11.500000000000 6.625000000000 3.210999488831 133 133 133
11.437500000000 6.500000000000 3.380999565125 90 90 90
11.453125000000 6.500000000000 3.325999259949 150 150 150
11.453125000000 6.500000000000 3.261000633240 146 146 146
11.453125000000 6.500000000000 3.196000099182 146 146 146
11.468750000000 6.500000000000 3.137000083923 39 39 39
11.109375000000 13.312500000000 3.167000770569 182 182 182
11.109375000000 13.312500000000 3.223999977112 223 223 223
11.109375000000 13.312500000000 3.279999732971 193 193 193
11.125000000000 13.187500000000 3.172999382019 181 181 181
11.125000000000 13.187500000000 3.227000236511 225 225 225
11.125000000000 13.187500000000 3.285000801086 197 197 197
11.156250000000 13.062500000000 3.176999092102 206 206 206
11.156250000000 13.062500000000 3.233000755310 221 221 221
11.156250000000 13.062500000000 3.287999153137 192 192 192
11.187500000000 12.937500000000 3.183999061584 197 197 197
11.187500000000 12.937500000000 3.241000175476 182 182 182
11.156250000000 12.937500000000 3.290999412537 198 198 198
11.203125000000 12.812500000000 3.190999031067 206 206 206
11.218750000000 12.812500000000 3.245999336243 174 174 174
11.171875000000 12.812500000000 3.292000770569 191 191 191
11.218750000000 12.625000000000 3.196000099182 211 211 211
11.250000000000 12.625000000000 3.252999305725 201 201 201
11.187500000000 12.625000000000 3.293000221252 196 196 196
11.250000000000 12.500000000000 3.199999809265 206 206 206
11.265625000000 12.500000000000 3.255999565125 192 192 192
11.187500000000 12.500000000000 3.293999671936 202 202 202
11.281250000000 12.375000000000 3.206000328064 206 206 206
11.281250000000 12.375000000000 3.262999534607 207 207 207
11.218750000000 12.375000000000 3.296000480652 203 203 203
11.312500000000 12.250000000000 3.213999748230 205 205 205
11.312500000000 12.250000000000 3.269000053406 199 199 199
11.203125000000 12.250000000000 3.296999931335 210 210 210
11.312500000000 12.125000000000 3.160000801086 43 43 43
11.343750000000 12.125000000000 3.219000816345 201 201 201
11.343750000000 12.125000000000 3.273999214172 209 209 209
11.218750000000 12.125000000000 3.300999641418 210 210 210
11.359375000000 12.000000000000 3.169999122620 112 112 112
11.359375000000 12.000000000000 3.226000785828 194 194 194
11.375000000000 12.000000000000 3.279999732971 210 210 210
11.234375000000 12.000000000000 3.300000190735 208 208 208
11.375000000000 11.875000000000 3.174000740051 165 165 165
11.375000000000 11.875000000000 3.230000495911 181 181 181
11.406250000000 11.875000000000 3.286000251770 205 205 205
11.234375000000 11.812500000000 3.300999641418 211 211 211
11.406250000000 11.750000000000 3.181000709534 174 174 174
11.406250000000 11.750000000000 3.231999397278 166 166 166
11.406250000000 11.750000000000 3.286999702454 210 210 210
11.250000000000 11.687500000000 3.300999641418 217 217 217
11.437500000000 11.562500000000 3.185999870300 200 200 200
11.437500000000 11.562500000000 3.241999626160 184 184 184
11.437500000000 11.562500000000 3.292000770569 206 206 206
11.250000000000 11.562500000000 3.303000450134 213 213 213
11.453125000000 11.437500000000 3.189999580383 206 206 206
11.453125000000 11.437500000000 3.244000434875 180 180 180
11.453125000000 11.437500000000 3.296999931335 206 206 206
11.265625000000 11.437500000000 3.300999641418 223 223 223
11.500000000000 11.312500000000 3.200999259949 220 220 220
11.500000000000 11.312500000000 3.252999305725 226 226 226
11.500000000000 11.312500000000 3.307000160217 200 200 200
11.281250000000 11.312500000000 3.303999900818 194 194 194
11.515625000000 11.187500000000 3.206999778748 227 227 227
11.515625000000 11.187500000000 3.258999824524 224 224 224
11.515625000000 11.187500000000 3.311999320984 194 194 194
11.281250000000 11.187500000000 3.306000709534 202 202 202
11.531250000000 11.062500000000 3.211998939514 221 221 221
11.562500000000 11.062500000000 3.266999244690 198 198 198
11.531250000000 11.062500000000 3.317000389099 177 177 177
11.468750000000 11.062500000000 3.345999717712 140 140 140
11.468750000000 11.062500000000 3.400000572205 146 146 146
11.468750000000 11.062500000000 3.452000617981 150 150 150
11.546875000000 10.937500000000 3.157999992371 29 29 29
11.562500000000 10.937500000000 3.217000007629 220 220 220
11.562500000000 10.937500000000 3.269000053406 225 225 225
11.468750000000 10.937500000000 3.293999671936 209 209 209
11.296875000000 10.875000000000 3.307000160217 208 208 208
11.562500000000 10.812500000000 3.167000770569 124 124 124
11.593750000000 10.812500000000 3.221999168396 222 222 222
11.593750000000 10.812500000000 3.273999214172 219 219 219
11.328125000000 10.750000000000 3.259999275208 231 231 231
11.296875000000 10.750000000000 3.307000160217 197 197 197
11.593750000000 10.625000000000 3.168999671936 174 174 174
11.593750000000 10.625000000000 3.224999427795 227 227 227
11.609375000000 10.625000000000 3.279000282288 224 224 224
11.312500000000 10.625000000000 3.255000114441 226 226 226
11.296875000000 10.625000000000 3.304999351501 224 224 224
11.625000000000 10.500000000000 3.178999900818 183 183 183
11.625000000000 10.500000000000 3.230000495911 224 224 224
11.625000000000 10.500000000000 3.283999443054 224 224 224
11.312500000000 10.500000000000 3.252999305725 211 211 211
11.312500000000 10.500000000000 3.304999351501 223 223 223
11.640625000000 10.375000000000 3.182999610901 196 196 196
11.640625000000 10.375000000000 3.234000205994 223 223 223
11.656250000000 10.375000000000 3.286999702454 222 222 222
11.328125000000 10.375000000000 3.254000663757 203 203 203
11.312500000000 10.375000000000 3.307000160217 224 224 224
11.656250000000 10.250000000000 3.185000419617 212 212 212
11.656250000000 10.250000000000 3.237000465393 224 224 224
11.687500000000 10.250000000000 3.289999961853 220 220 220
11.312500000000 10.250000000000 3.251999855042 221 221 221
11.312500000000 10.250000000000 3.306000709534 224 224 224
11.687500000000 10.125000000000 3.189999580383 221 221 221
11.687500000000 10.125000000000 3.241000175476 229 229 229
11.687500000000 10.125000000000 3.293999671936 224 224 224
11.328125000000 10.062500000000 3.252999305725 187 187 187
11.328125000000 10.062500000000 3.306000709534 212 212 212
11.718750000000 10.000000000000 3.196000099182 221 221 221
11.718750000000 10.000000000000 3.245999336243 226 226 226
11.718750000000 10.000000000000 3.299000740051 226 226 226
11.343750000000 9.937500000000 3.255000114441 213 213 213
11.359375000000 9.937500000000 3.311999320984 193 193 193
11.718750000000 9.875000000000 3.199000358582 229 229 229
11.734375000000 9.875000000000 3.251999855042 225 225 225
11.734375000000 9.875000000000 3.303000450134 224 224 224
11.359375000000 9.812500000000 3.254000663757 229 229 229
11.359375000000 9.812500000000 3.310999870300 205 205 205
11.750000000000 9.750000000000 3.206000328064 224 224 224
11.750000000000 9.750000000000 3.256999015808 222 222 222
11.750000000000 9.750000000000 3.306000709534 221 221 221
11.359375000000 9.687500000000 3.256999015808 228 228 228
11.359375000000 9.687500000000 3.311999320984 209 209 209
11.781250000000 9.562500000000 3.211998939514 224 224 224
11.765625000000 9.562500000000 3.261000633240 222 222 222
11.781250000000 9.562500000000 3.311999320984 217 217 217
11.375000000000 9.562500000000 3.258000373840 227 227 227
11.390625000000 9.562500000000 3.314999580383 195 195 195
11.750000000000 9.437500000000 3.157999992371 48 48 48
11.781250000000 9.437500000000 3.217000007629 226 226 226
11.781250000000 9.437500000000 3.266999244690 223 223 223
11.781250000000 9.437500000000 3.314000129700 221 221 221
11.375000000000 9.437500000000 3.258999824524 228 228 228
11.406250000000 9.437500000000 3.317000389099 204 204 204
11.812500000000 9.312500000000 3.171999931335 146 146 146
11.812500000000 9.312500000000 3.221999168396 223 223 223
11.812500000000 9.312500000000 3.272999763489 227 227 227
11.781250000000 9.312500000000 3.313000679016 232 232 232
11.390625000000 9.312500000000 3.262000083923 223 223 223
11.390625000000 9.312500000000 3.317999839783 204 204 204
11.843750000000 9.187500000000 3.178999900818 174 174 174
11.843750000000 9.187500000000 3.227999687195 225 225 225
11.843750000000 9.187500000000 3.279000282288 224 224 224
