21.140625000000 20.937500000000 4.435000419617 54 54 54
21.187500000000 20.937500000000 4.369999885559 79 79 79
21.000000000000 21.125000000000 5.925000190735 177 177 177
21.000000000000 21.125000000000 5.856999397278 212 212 212
21.000000000000 21.125000000000 5.790999412537 217 217 217
21.000000000000 21.125000000000 5.723000526428 217 217 217
21.000000000000 21.125000000000 5.454998970032 192 192 192
20.968750000000 21.125000000000 5.388998985291 201 201 201
21.000000000000 21.125000000000 5.324999809265 206 206 206
21.000000000000 21.125000000000 5.262000083923 136 136 136
21.156250000000 21.062500000000 4.759999275208 111 111 111
21.156250000000 21.062500000000 4.693999290466 125 125 125
21.156250000000 21.062500000000 4.629000663757 110 110 110
20.968750000000 21.250000000000 5.984000205994 218 218 218
20.968750000000 21.250000000000 5.915999412537 225 225 225
20.984375000000 21.250000000000 5.853999137878 240 240 240
20.968750000000 21.250000000000 5.780999183655 189 189 189
20.921875000000 21.250000000000 5.377999305725 194 194 194
20.921875000000 21.250000000000 5.314999580383 210 210 210
20.937500000000 21.250000000000 5.251000404358 201 201 201
20.937500000000 21.250000000000 5.188000679016 179 179 179
23.671875000000 13.187500000000 5.893000602722 19 19 19
23.671875000000 13.187500000000 5.785000801086 136 136 136
23.609375000000 13.250000000000 5.346999168396 6 6 6
23.625000000000 13.250000000000 5.242999076843 102 102 102
23.640625000000 13.250000000000 5.137000083923 97 97 97
23.609375000000 13.375000000000 5.772999763489 96 96 96
23.593750000000 13.375000000000 5.665999412537 109 109 109
23.593750000000 13.375000000000 5.452000617981 146 146 146
23.546875000000 13.437500000000 5.341000556946 111 111 111
23.578125000000 13.437500000000 5.237000465393 103 103 103
23.156250000000 13.625000000000 2.887999534607 14 14 14
23.156250000000 13.625000000000 2.783999443054 21 21 21
23.359375000000 13.625000000000 6.050000190735 180 180 180
23.312500000000 13.687500000000 5.938000679016 156 156 156
23.296875000000 13.687500000000 5.832999229431 167 167 167
23.296875000000 13.687500000000 5.728999137878 166 166 166
23.296875000000 13.687500000000 5.624999046326 174 174 174
23.296875000000 13.687500000000 5.522999763489 181 181 181
23.281250000000 13.687500000000 5.418000221252 186 186 186
23.281250000000 13.687500000000 5.315999031067 188 188 188
23.265625000000 13.687500000000 5.213999748230 194 194 194
23.265625000000 13.687500000000 5.112000465393 205 205 205
23.265625000000 13.687500000000 5.009999275208 208 208 208
23.250000000000 13.687500000000 4.907999992371 216 216 216
23.265625000000 13.687500000000 4.807000160217 221 221 221
23.250000000000 13.687500000000 4.706000328064 230 230 230
23.250000000000 13.687500000000 4.603999137878 237 237 237
23.265625000000 13.687500000000 4.502999305725 241 241 241
23.265625000000 13.687500000000 4.401999473572 255 255 255
23.250000000000 13.750000000000 4.300999641418 255 255 255
23.265625000000 13.687500000000 4.199000358582 255 255 255
23.234375000000 13.750000000000 4.099999427795 222 222 222
23.218750000000 13.750000000000 3.998999595642 200 200 200
23.234375000000 13.750000000000 3.895998954773 186 186 186
23.234375000000 13.750000000000 3.794999122620 174 174 174
23.234375000000 13.750000000000 3.692999839783 158 158 158
23.250000000000 13.750000000000 3.588999748230 162 162 162
23.234375000000 13.750000000000 3.487999916077 157 157 157
23.250000000000 13.750000000000 3.383000373840 161 161 161
23.265625000000 13.750000000000 3.277998924255 167 167 167
23.265625000000 13.750000000000 3.174000740051 171 171 171
23.250000000000 13.750000000000 2.862000465393 159 159 159
23.234375000000 13.750000000000 2.758999824524 152 152 152
23.234375000000 13.750000000000 2.654000282288 138 138 138
23.437500000000 13.750000000000 5.961998939514 117 117 117
23.484375000000 13.750000000000 5.862000465393 237 237 237
23.406250000000 13.750000000000 5.640000343323 151 151 151
23.406250000000 13.812500000000 5.532999992371 143 143 143
23.406250000000 13.812500000000 5.429999351501 125 125 125
23.281250000000 13.875000000000 4.401000022888 9 9 9
23.296875000000 13.937500000000 5.835000038147 28 28 28
23.312500000000 13.937500000000 5.731999397278 103 103 103
23.296875000000 14.000000000000 5.626999855042 122 122 122
23.296875000000 14.000000000000 5.523999214172 11 11 11
23.296875000000 14.000000000000 5.421000480652 98 98 98
23.281250000000 14.000000000000 5.317000389099 104 104 104
23.250000000000 14.125000000000 5.931000709534 101 101 101
23.250000000000 14.125000000000 5.827000617981 118 118 118
23.218750000000 14.125000000000 5.723000526428 99 99 99
23.187500000000 14.187500000000 5.310999870300 99 99 99
23.171875000000 14.187500000000 5.207999229431 100 100 100
21.187500000000 20.187500000000 5.914999961853 133 133 133
21.171875000000 20.187500000000 5.834000587463 90 90 90
21.218750000000 20.125000000000 5.372000694275 103 103 103
21.218750000000 20.125000000000 5.296000480652 152 152 152
21.156250000000 20.312500000000 5.984000205994 35 35 35
21.140625000000 20.312500000000 5.902998924255 143 143 143
21.140625000000 20.312500000000 5.824000358582 165 165 165
21.140625000000 20.312500000000 5.747000694275 120 120 120
21.171875000000 20.312500000000 5.440999031067 173 173 173
21.171875000000 20.312500000000 5.365000724792 159 159 159
21.171875000000 20.312500000000 5.287999153137 131 131 131
21.015625000000 20.562500000000 6.185999870300 67 67 67
20.875000000000 20.687500000000 6.067999839783 61 61 61
20.890625000000 20.687500000000 5.921000480652 124 124 124
20.906250000000 20.625000000000 5.849999427795 100 100 100
21.093750000000 20.500000000000 5.815999031067 145 145 145
21.093750000000 20.500000000000 5.737000465393 153 153 153
21.093750000000 20.500000000000 5.660000801086 173 173 173
21.109375000000 20.500000000000 5.585999488831 62 62 62
21.093750000000 20.500000000000 5.508000373840 186 186 186
21.109375000000 20.500000000000 5.432999610901 186 186 186
21.109375000000 20.500000000000 5.358000755310 140 140 140
21.296875000000 20.375000000000 4.755999565125 55 55 55
21.296875000000 20.375000000000 4.678999900818 65 65 65
21.296875000000 20.375000000000 4.601000785828 43 43 43
21.093750000000 20.500000000000 2.591000556946 183 183 183
20.828125000000 20.812500000000 6.213000297546 30 30 30
20.875000000000 20.812500000000 6.148999214172 95 95 95
20.828125000000 20.812500000000 6.060999870300 130 130 130
20.890625000000 20.812500000000 5.997000694275 110 110 110
20.890625000000 20.812500000000 5.925000190735 189 189 189
20.906250000000 20.812500000000 5.851000785828 192 192 192
20.906250000000 20.812500000000 5.775000572205 192 192 192
20.906250000000 20.812500000000 5.702000617981 196 196 196
20.906250000000 20.812500000000 5.627999305725 192 192 192
20.921875000000 20.812500000000 5.553999900818 197 197 197
20.921875000000 20.812500000000 5.480000495911 194 194 194
20.921875000000 20.812500000000 5.405999183655 190 190 190
20.921875000000 20.812500000000 5.334000587463 195 195 195
20.937500000000 20.812500000000 5.261000633240 193 193 193
20.937500000000 20.812500000000 5.186999320984 189 189 189
20.937500000000 20.812500000000 5.113999366760 189 189 189
20.937500000000 20.812500000000 5.040999412537 191 191 191
20.937500000000 20.812500000000 4.967999458313 192 192 192
20.937500000000 20.812500000000 4.894999504089 200 200 200
20.937500000000 20.812500000000 4.821999549866 189 189 189
20.953125000000 20.812500000000 4.748999595642 175 175 175
20.968750000000 20.750000000000 4.675999641418 168 168 168
20.953125000000 20.812500000000 4.602999687195 163 163 163
20.968750000000 20.750000000000 4.529000282288 161 161 161
20.984375000000 20.750000000000 4.456000328064 169 169 169
21.000000000000 20.750000000000 4.381999015808 148 148 148
20.984375000000 20.750000000000 4.307999610901 174 174 174
21.000000000000 20.750000000000 4.234000205994 156 156 156
21.000000000000 20.750000000000 4.158999443054 157 157 157
21.000000000000 20.750000000000 4.085000038147 162 162 162
21.015625000000 20.750000000000 4.008999824524 163 163 163
21.000000000000 20.750000000000 3.935999870300 191 191 191
21.031250000000 20.750000000000 3.858000755310 166 166 166
21.046875000000 20.750000000000 3.780999183655 164 164 164
21.031250000000 20.750000000000 3.706000328064 165 165 165
21.046875000000 20.750000000000 3.627999305725 165 165 165
21.046875000000 20.750000000000 3.551999092102 156 156 156
21.046875000000 20.750000000000 3.473999977112 157 157 157
21.062500000000 20.750000000000 3.394999504089 161 161 161
21.062500000000 20.750000000000 3.317999839783 152 152 152
21.062500000000 20.750000000000 3.238999366760 154 154 154
21.078125000000 20.687500000000 3.158999443054 153 153 153
21.062500000000 20.750000000000 3.081999778748 151 151 151
21.078125000000 20.687500000000 2.998000144958 153 153 153
21.093750000000 20.687500000000 2.917000770569 154 154 154
21.093750000000 20.687500000000 2.835999488831 152 152 152
21.093750000000 20.687500000000 2.755000114441 155 155 155
21.093750000000 20.687500000000 2.669999122620 154 154 154
21.093750000000 20.687500000000 2.591000556946 162 162 162
20.953125000000 20.937500000000 6.168000221252 46 46 46
21.031250000000 20.875000000000 6.117999076843 41 41 41
21.000000000000 20.875000000000 6.026999473572 45 45 45
21.000000000000 20.875000000000 5.796999931335 65 65 65
21.000000000000 20.875000000000 5.723999977112 153 153 153
21.000000000000 20.875000000000 5.647999763489 144 144 144
21.000000000000 20.875000000000 5.571000099182 152 152 152
21.000000000000 20.875000000000 5.494999885559 147 147 147
21.000000000000 20.875000000000 5.418999671936 111 111 111
21.203125000000 20.750000000000 4.908999443054 25 25 25
21.187500000000 20.750000000000 4.831999778748 82 82 82
21.203125000000 20.750000000000 4.755000114441 102 102 102
21.187500000000 20.750000000000 4.678999900818 98 98 98
21.093750000000 20.812500000000 4.602999687195 109 109 109
21.125000000000 20.750000000000 4.526999473572 141 141 141
21.156250000000 20.750000000000 4.450999259949 65 65 65
21.156250000000 20.750000000000 4.374999046326 65 65 65
21.187500000000 20.750000000000 4.296999931335 75 75 75
21.171875000000 20.750000000000 4.221999168396 121 121 121
20.968750000000 21.062500000000 5.867999076843 160 160 160
20.968750000000 21.062500000000 5.790999412537 156 156 156
20.968750000000 21.062500000000 5.716000556946 155 155 155
20.984375000000 21.062500000000 5.643000602722 40 40 40
20.937500000000 21.062500000000 5.487000465393 134 134 134
20.937500000000 21.062500000000 5.411000251770 135 135 135
20.953125000000 21.062500000000 5.338999748230 138 138 138
21.125000000000 20.937500000000 4.829998970032 91 91 91
21.125000000000 20.937500000000 4.754000663757 98 98 98
21.093750000000 20.937500000000 4.678000450134 84 84 84
21.125000000000 20.937500000000 4.602999687195 75 75 75
21.125000000000 20.937500000000 4.376000404358 44 44 44
20.890625000000 21.250000000000 6.005999565125 21 21 21
20.906250000000 21.250000000000 5.932999610901 191 191 191
20.906250000000 21.250000000000 5.858000755310 193 193 193
20.921875000000 21.250000000000 5.785000801086 157 157 157
20.875000000000 21.250000000000 5.405999183655 113 113 113
20.875000000000 21.250000000000 5.331999778748 174 174 174
20.890625000000 21.250000000000 5.261000633240 143 143 143
20.875000000000 21.250000000000 5.185000419617 94 94 94
21.093750000000 21.062500000000 4.755999565125 66 66 66
21.093750000000 21.062500000000 4.681000709534 67 67 67
20.937500000000 21.375000000000 5.151000022888 203 203 203
20.906250000000 21.375000000000 5.223000526428 203 203 203
20.937500000000 21.375000000000 5.296999931335 205 205 205
20.937500000000 21.375000000000 5.745999336243 198 198 198
20.937500000000 21.375000000000 5.820000648499 200 200 200
20.937500000000 21.375000000000 5.897000312805 200 200 200
20.953125000000 21.250000000000 5.227000236511 202 202 202
20.953125000000 21.250000000000 5.300999641418 205 205 205
20.953125000000 21.250000000000 5.373999595642 200 200 200
20.968750000000 21.250000000000 5.675000190735 192 192 192
20.984375000000 21.250000000000 5.751000404358 195 195 195
20.984375000000 21.250000000000 5.825999259949 195 195 195
21.125000000000 21.125000000000 4.494000434875 23 23 23
21.140625000000 21.187500000000 4.568999290466 102 102 102
21.140625000000 21.187500000000 4.644999504089 107 107 107
21.125000000000 21.187500000000 4.720000267029 52 52 52
21.031250000000 21.125000000000 5.235999107361 57 57 57
21.000000000000 21.125000000000 5.306000709534 203 203 203
21.000000000000 21.125000000000 5.379000663757 203 203 203
21.000000000000 21.125000000000 5.456000328064 201 201 201
21.000000000000 21.125000000000 5.606999397278 193 193 193
21.000000000000 21.125000000000 5.682000160217 197 197 197
21.000000000000 21.125000000000 5.756999015808 197 197 197
21.125000000000 21.000000000000 4.344000816345 38 38 38
21.109375000000 21.000000000000 4.419999122620 54 54 54
21.156250000000 21.062500000000 4.494000434875 98 98 98
21.156250000000 21.062500000000 4.568999290466 119 119 119
21.109375000000 21.000000000000 4.644000053406 102 102 102
21.187500000000 21.062500000000 4.720000267029 108 108 108
21.187500000000 21.062500000000 4.796000480652 99 99 99
21.046875000000 21.000000000000 5.310999870300 114 114 114
21.031250000000 21.000000000000 5.384999275208 200 200 200
21.031250000000 21.000000000000 5.460000038147 199 199 199
21.031250000000 21.000000000000 5.536000251770 194 194 194
21.031250000000 21.000000000000 5.610999107361 196 196 196
21.046875000000 21.000000000000 5.688000679016 196 196 196
20.906250000000 20.937500000000 5.959000587463 106 106 106
21.062500000000 21.000000000000 6.077000617981 121 121 121
20.968750000000 20.937500000000 6.126999855042 101 101 101
20.968750000000 20.875000000000 3.911000251770 23 23 23
21.000000000000 20.875000000000 3.984000205994 50 50 50
20.968750000000 20.812500000000 4.058999061584 90 90 90
20.968750000000 20.812500000000 4.131999015808 66 66 66
21.031250000000 20.875000000000 4.200999259949 125 125 125
21.000000000000 20.875000000000 4.276000022888 112 112 112
21.000000000000 20.875000000000 4.351000785828 119 119 119
21.000000000000 20.875000000000 4.422999382019 188 188 188
21.000000000000 20.875000000000 4.497000694275 140 140 140
20.968750000000 20.812500000000 4.570000648499 143 143 143
20.968750000000 20.812500000000 4.643000602722 153 153 153
20.968750000000 20.812500000000 4.716000556946 166 166 166
20.968750000000 20.812500000000 4.789000511169 164 164 164
20.968750000000 20.812500000000 4.860999107361 179 179 179
20.968750000000 20.812500000000 4.933999061584 185 185 185
20.953125000000 20.812500000000 5.005999565125 186 186 186
20.953125000000 20.812500000000 5.078999519348 189 189 189
20.937500000000 20.812500000000 5.151999473572 192 192 192
20.953125000000 20.812500000000 5.226000785828 190 190 190
20.953125000000 20.812500000000 5.297999382019 196 196 196
20.937500000000 20.812500000000 5.370999336243 193 193 193
20.953125000000 20.812500000000 5.446000099182 195 195 195
20.937500000000 20.812500000000 5.519000053406 194 194 194
20.937500000000 20.812500000000 5.592999458313 195 195 195
20.937500000000 20.812500000000 5.668000221252 196 196 196
20.937500000000 20.812500000000 5.741999626160 195 195 195
20.953125000000 20.812500000000 5.817999839783 193 193 193
20.953125000000 20.812500000000 5.894999504089 192 192 192
20.921875000000 20.812500000000 5.963000297546 163 163 163
20.921875000000 20.812500000000 6.039000511169 110 110 110
20.890625000000 20.750000000000 6.105999946594 106 106 106
20.937500000000 20.812500000000 6.193999290466 20 20 20
21.062500000000 20.750000000000 3.137000083923 89 89 89
21.031250000000 20.750000000000 3.224999427795 174 174 174
21.031250000000 20.750000000000 3.300999641418 169 169 169
21.031250000000 20.750000000000 3.376999855042 169 169 169
21.031250000000 20.750000000000 3.453000068665 163 163 163
21.031250000000 20.750000000000 3.529000282288 161 161 161
21.031250000000 20.750000000000 3.605000495911 150 150 150
21.046875000000 20.750000000000 3.678999900818 145 145 145
21.046875000000 20.750000000000 3.752999305725 153 153 153
21.062500000000 20.750000000000 3.825999259949 160 160 160
21.062500000000 20.750000000000 3.901000022888 161 161 161
21.078125000000 20.687500000000 3.973999977112 168 168 168
21.093750000000 20.750000000000 4.046999931335 172 172 172
21.093750000000 20.750000000000 4.120999336243 170 170 170
21.093750000000 20.750000000000 4.196000099182 179 179 179
21.109375000000 20.750000000000 4.269999504089 179 179 179
21.109375000000 20.750000000000 4.345000267029 179 179 179
21.093750000000 20.750000000000 4.419999122620 182 182 182
21.109375000000 20.750000000000 4.494000434875 194 194 194
21.093750000000 20.750000000000 4.568999290466 202 202 202
21.109375000000 20.750000000000 4.644000053406 203 203 203
21.093750000000 20.750000000000 4.717999458313 200 200 200
21.093750000000 20.750000000000 4.793000221252 194 194 194
21.109375000000 20.750000000000 4.867999076843 185 185 185
21.109375000000 20.750000000000 4.942999839783 175 175 175
21.093750000000 20.750000000000 5.016999244690 137 137 137
21.093750000000 20.750000000000 5.091000556946 80 80 80
21.109375000000 20.750000000000 5.394000053406 199 199 199
21.093750000000 20.750000000000 5.469000816345 198 198 198
21.093750000000 20.750000000000 5.543999671936 201 201 201
21.093750000000 20.750000000000 5.620999336243 201 201 201
21.109375000000 20.750000000000 5.699999809265 178 178 178
21.046875000000 20.750000000000 5.991999626160 107 107 107
21.218750000000 20.812500000000 6.116000175476 129 129 129
20.984375000000 20.687500000000 6.130999565125 29 29 29
21.265625000000 20.687500000000 4.182999610901 112 112 112
21.281250000000 20.687500000000 4.258999824524 124 124 124
21.281250000000 20.687500000000 4.336998939514 116 116 116
21.281250000000 20.687500000000 4.414000511169 113 113 113
21.281250000000 20.687500000000 4.491000175476 113 113 113
21.265625000000 20.687500000000 4.567999839783 96 96 96
21.234375000000 20.687500000000 4.644000053406 97 97 97
21.281250000000 20.687500000000 4.721999168396 107 107 107
21.281250000000 20.687500000000 4.797999382019 112 112 112
21.156250000000 20.625000000000 5.321999549866 196 196 196
21.156250000000 20.625000000000 5.398999214172 203 203 203
21.140625000000 20.625000000000 5.473999977112 197 197 197
21.140625000000 20.625000000000 5.549000740051 194 194 194
21.140625000000 20.625000000000 5.624999046326 198 198 198
21.140625000000 20.625000000000 5.703000068665 200 200 200
21.140625000000 20.625000000000 5.780999183655 114 114 114
21.312500000000 20.562500000000 4.335000038147 66 66 66
21.328125000000 20.625000000000 4.411999702454 114 114 114
21.328125000000 20.625000000000 4.490000724792 113 113 113
21.328125000000 20.625000000000 4.567000389099 110 110 110
21.328125000000 20.625000000000 4.644000053406 107 107 107
21.312500000000 20.625000000000 4.721999168396 108 108 108
21.328125000000 20.625000000000 4.799000740051 103 103 103
21.171875000000 20.500000000000 5.249999046326 197 197 197
21.171875000000 20.500000000000 5.324999809265 199 199 199
21.171875000000 20.500000000000 5.401000022888 205 205 205
21.187500000000 20.500000000000 5.480000495911 36 36 36
21.171875000000 20.500000000000 5.631999015808 196 196 196
21.156250000000 20.500000000000 5.707999229431 202 202 202
21.171875000000 20.500000000000 5.786999702454 199 199 199
21.156250000000 20.500000000000 5.863999366760 51 51 51
21.343750000000 20.500000000000 4.567000389099 62 62 62
21.359375000000 20.500000000000 4.644999504089 79 79 79
21.343750000000 20.500000000000 4.723000526428 25 25 25
21.218750000000 20.375000000000 5.178000450134 196 196 196
21.218750000000 20.375000000000 5.252999305725 195 195 195
21.218750000000 20.375000000000 5.329998970032 205 205 205
21.218750000000 20.375000000000 5.407999992371 78 78 78
21.203125000000 20.375000000000 5.713999748230 197 197 197
21.203125000000 20.375000000000 5.790999412537 198 198 198
21.203125000000 20.375000000000 5.869999885559 198 198 198
21.281250000000 20.312500000000 5.181000709534 186 186 186
21.250000000000 20.250000000000 5.256999015808 199 199 199
21.250000000000 20.250000000000 5.334000587463 109 109 109
21.218750000000 20.250000000000 5.796999931335 197 197 197
21.250000000000 20.250000000000 5.879000663757 183 183 183
23.218750000000 14.375000000000 5.137000083923 127 127 127
23.218750000000 14.375000000000 5.238999366760 197 197 197
23.265625000000 14.437500000000 5.748000144958 149 149 149
23.250000000000 14.312500000000 5.137000083923 218 218 218
23.265625000000 14.312500000000 5.238999366760 220 220 220
23.296875000000 14.312500000000 5.650000572205 170 170 170
23.296875000000 14.312500000000 5.752999305725 200 200 200
23.312500000000 14.312500000000 5.858000755310 194 194 194
23.312500000000 14.187500000000 5.140000343323 208 208 208
23.312500000000 14.187500000000 5.241999626160 216 216 216
23.328125000000 14.187500000000 5.345000267029 214 214 214
23.328125000000 14.187500000000 5.550999641418 62 62 62
23.343750000000 14.187500000000 5.655999183655 203 203 203
23.359375000000 14.187500000000 5.759999275208 198 198 198
23.375000000000 14.062500000000 5.245999336243 214 214 214
23.375000000000 14.062500000000 5.349999427795 216 216 216
23.406250000000 14.125000000000 5.454998970032 21 21 21
23.375000000000 14.125000000000 5.557000160217 206 206 206
23.406250000000 14.125000000000 5.661999702454 203 203 203
23.406250000000 14.125000000000 5.766999244690 12 12 12
23.203125000000 13.875000000000 2.609000205994 41 41 41
23.218750000000 13.875000000000 2.710999488831 46 46 46
23.203125000000 13.875000000000 2.815999031067 28 28 28
23.218750000000 13.875000000000 2.918999671936 20 20 20
23.234375000000 13.875000000000 3.018000602722 1 1 1
23.421875000000 14.000000000000 5.251000404358 131 131 131
23.421875000000 14.000000000000 5.353999137878 218 218 218
23.421875000000 14.000000000000 5.456999778748 210 210 210
23.421875000000 14.000000000000 5.561999320984 210 210 210
23.437500000000 14.000000000000 5.667000770569 168 168 168
23.281250000000 13.750000000000 2.692000389099 105 105 105
23.281250000000 13.750000000000 2.796000480652 116 116 116
23.312500000000 13.812500000000 2.898999214172 137 137 137
23.312500000000 13.812500000000 2.999999046326 145 145 145
23.312500000000 13.812500000000 3.105999946594 151 151 151
23.312500000000 13.812500000000 3.210999488831 149 149 149
23.281250000000 13.750000000000 3.317000389099 151 151 151
23.281250000000 13.750000000000 3.419999122620 146 146 146
23.265625000000 13.750000000000 3.525000572205 152 152 152
23.281250000000 13.750000000000 3.624999046326 170 170 170
23.281250000000 13.750000000000 3.724999427795 195 195 195
23.281250000000 13.750000000000 3.828000068665 210 210 210
23.281250000000 13.750000000000 3.929999351501 220 220 220
23.281250000000 13.750000000000 4.029999732971 250 250 250
23.296875000000 13.750000000000 4.130000114441 255 255 255
23.296875000000 13.750000000000 4.231999397278 255 255 255
23.312500000000 13.812500000000 4.331999778748 255 255 255
23.312500000000 13.812500000000 4.432999610901 235 235 235
23.296875000000 13.750000000000 4.533999443054 224 224 224
23.312500000000 13.812500000000 4.634999275208 217 217 217
23.312500000000 13.812500000000 4.735999107361 211 211 211
23.312500000000 13.812500000000 4.836998939514 210 210 210
23.343750000000 13.812500000000 4.939000129700 208 208 208
23.343750000000 13.812500000000 5.040999412537 206 206 206
23.343750000000 13.812500000000 5.143000602722 199 199 199
23.343750000000 13.812500000000 5.245999336243 197 197 197
23.343750000000 13.812500000000 5.348000526428 194 194 194
23.375000000000 13.812500000000 5.453000068665 184 184 184
23.375000000000 13.812500000000 5.556000709534 166 166 166
23.375000000000 13.812500000000 5.657000541687 146 146 146
23.375000000000 13.812500000000 5.762000083923 142 142 142
23.375000000000 13.812500000000 5.865000724792 127 127 127
23.531250000000 13.812500000000 5.261000633240 33 33 33
23.515625000000 13.750000000000 5.365000724792 219 219 219
23.515625000000 13.750000000000 5.470000267029 217 217 217
23.531250000000 13.812500000000 5.575999259949 227 227 227
23.531250000000 13.812500000000 5.786000251770 44 44 44
23.531250000000 13.812500000000 5.894000053406 90 90 90
23.562500000000 13.687500000000 5.263998985291 217 217 217
23.562500000000 13.687500000000 5.369999885559 218 218 218
23.578125000000 13.687500000000 5.476000785828 221 221 221
23.578125000000 13.687500000000 5.582999229431 227 227 227
23.593750000000 13.687500000000 5.690999031067 187 187 187
23.625000000000 13.562500000000 5.162999153137 216 216 216
23.625000000000 13.562500000000 5.269000053406 217 217 217
23.625000000000 13.562500000000 5.374999046326 200 200 200
23.625000000000 13.562500000000 5.588999748230 226 226 226
23.625000000000 13.562500000000 5.696000099182 228 228 228
23.671875000000 13.500000000000 5.060999870300 151 151 151
23.656250000000 13.437500000000 5.165999412537 217 217 217
23.656250000000 13.437500000000 5.272000312805 218 218 218
23.687500000000 13.500000000000 5.594000816345 213 213 213
23.687500000000 13.500000000000 5.702000617981 228 228 228
23.703125000000 13.500000000000 5.810999870300 209 209 209
23.718750000000 13.375000000000 5.061999320984 169 169 169
23.718750000000 13.375000000000 5.168000221252 222 222 222
23.750000000000 13.375000000000 5.707999229431 220 220 220
23.750000000000 13.375000000000 5.815999031067 215 215 215
20.937500000000 21.437500000000 5.852999687195 142 142 142
20.937500000000 21.437500000000 5.776000022888 163 163 163
20.906250000000 21.437500000000 5.251999855042 75 75 75
20.984375000000 21.250000000000 5.862000465393 159 159 159
20.968750000000 21.312500000000 5.783999443054 160 160 160
20.968750000000 21.250000000000 5.709000587463 147 147 147
20.937500000000 21.312500000000 5.331000328064 128 128 128
20.953125000000 21.312500000000 5.258999824524 123 123 123
20.953125000000 21.312500000000 5.183999061584 128 128 128
21.156250000000 21.125000000000 4.751000404358 69 69 69
21.140625000000 21.125000000000 4.675000190735 97 97 97
21.140625000000 21.125000000000 4.598999977112 94 94 94
21.140625000000 21.125000000000 4.523999214172 91 91 91
21.156250000000 21.125000000000 4.447999000549 46 46 46
21.000000000000 21.125000000000 5.790999412537 119 119 119
21.031250000000 21.125000000000 5.717000007629 144 144 144
21.031250000000 21.125000000000 5.643000602722 149 149 149
21.031250000000 21.125000000000 5.567000389099 121 121 121
21.000000000000 21.125000000000 5.488999366760 23 23 23
21.000000000000 21.125000000000 5.412999153137 134 134 134
21.000000000000 21.125000000000 5.336998939514 132 132 132
21.000000000000 21.125000000000 5.262999534607 119 119 119
21.187500000000 21.000000000000 4.751999855042 89 89 89
21.171875000000 21.000000000000 4.675999641418 71 71 71
21.125000000000 21.000000000000 4.599999427795 85 85 85
21.156250000000 21.000000000000 4.523999214172 78 78 78
21.171875000000 21.000000000000 4.447999000549 120 120 120
21.156250000000 21.000000000000 4.296999931335 19 19 19
21.187500000000 21.000000000000 4.219000816345 71 71 71
21.031250000000 21.000000000000 6.105000495911 54 54 54
21.078125000000 20.937500000000 6.039999961853 81 81 81
21.031250000000 21.000000000000 5.949999809265 69 69 69
21.062500000000 21.000000000000 5.648999214172 151 151 151
21.046875000000 21.000000000000 5.571000099182 135 135 135
21.062500000000 21.000000000000 5.495999336243 143 143 143
21.046875000000 21.000000000000 5.418999671936 142 142 142
21.046875000000 21.000000000000 5.342999458313 104 104 104
21.250000000000 20.812500000000 4.752999305725 81 81 81
21.250000000000 20.812500000000 4.675999641418 101 101 101
21.125000000000 20.875000000000 4.598999977112 125 125 125
21.125000000000 20.875000000000 4.525000572205 108 108 108
21.156250000000 20.875000000000 4.447999000549 123 123 123
21.203125000000 20.875000000000 4.370999336243 51 51 51
21.187500000000 20.875000000000 4.296000480652 62 62 62
21.218750000000 20.812500000000 4.217000007629 87 87 87
21.218750000000 20.812500000000 4.140999794006 93 93 93
20.890625000000 20.937500000000 6.140999794006 27 27 27
20.937500000000 20.875000000000 6.078000068665 108 108 108
20.906250000000 20.937500000000 5.991999626160 138 138 138
20.937500000000 20.875000000000 5.925999641418 110 110 110
20.937500000000 20.875000000000 5.852000236511 179 179 179
20.968750000000 20.875000000000 5.779000282288 186 186 186
20.968750000000 20.875000000000 5.703999519348 183 183 183
20.968750000000 20.875000000000 5.629000663757 186 186 186
20.968750000000 20.875000000000 5.554999351501 184 184 184
20.968750000000 20.875000000000 5.480000495911 186 186 186
20.968750000000 20.875000000000 5.407000541687 184 184 184
20.968750000000 20.875000000000 5.331999778748 189 189 189
20.968750000000 20.875000000000 5.258999824524 187 187 187
20.968750000000 20.875000000000 5.185000419617 184 184 184
20.968750000000 20.875000000000 5.112000465393 186 186 186
20.968750000000 20.875000000000 5.037999153137 190 190 190
20.968750000000 20.875000000000 4.964999198914 191 191 191
20.968750000000 20.875000000000 4.891999244690 198 198 198
20.968750000000 20.875000000000 4.818999290466 212 212 212
20.968750000000 20.875000000000 4.745999336243 195 195 195
21.000000000000 20.875000000000 4.672999382019 179 179 179
21.000000000000 20.875000000000 4.598999977112 175 175 175
21.000000000000 20.875000000000 4.526000022888 167 167 167
21.000000000000 20.875000000000 4.453000068665 169 169 169
21.031250000000 20.875000000000 4.379000663757 179 179 179
21.000000000000 20.875000000000 4.304999351501 155 155 155
21.000000000000 20.875000000000 4.231999397278 169 169 169
21.031250000000 20.875000000000 4.157000541687 157 157 157
21.031250000000 20.875000000000 4.082999229431 154 154 154
21.031250000000 20.875000000000 4.008000373840 145 145 145
21.031250000000 20.875000000000 3.933999061584 146 146 146
21.031250000000 20.875000000000 3.859999656677 173 173 173
21.031250000000 20.875000000000 3.782000541687 149 149 149
21.062500000000 20.875000000000 3.706000328064 153 153 153
21.062500000000 20.875000000000 3.630000114441 156 156 156
21.062500000000 20.875000000000 3.554999351501 149 149 149
21.062500000000 20.875000000000 3.478999137878 148 148 148
21.062500000000 20.812500000000 3.398999214172 153 153 153
21.062500000000 20.812500000000 3.321000099182 152 152 152
21.062500000000 20.812500000000 3.244000434875 155 155 155
21.078125000000 20.812500000000 3.161999702454 156 156 156
21.062500000000 20.812500000000 3.085999488831 150 150 150
21.078125000000 20.812500000000 3.005999565125 155 155 155
21.093750000000 20.750000000000 2.922999382019 157 157 157
21.062500000000 20.812500000000 2.848000526428 146 146 146
21.093750000000 20.750000000000 2.762999534607 148 148 148
21.078125000000 20.812500000000 2.685000419617 148 148 148
21.093750000000 20.750000000000 2.601000785828 144 144 144
21.093750000000 20.750000000000 2.513999938965 143 143 143
21.109375000000 20.625000000000 6.120999336243 116 116 116
20.890625000000 20.812500000000 5.991000175476 98 98 98
20.953125000000 20.750000000000 5.852000236511 139 139 139
20.953125000000 20.750000000000 5.776000022888 139 139 139
21.109375000000 20.625000000000 5.734000205994 133 133 133
21.140625000000 20.625000000000 5.661000251770 137 137 137
21.140625000000 20.625000000000 5.585000038147 180 180 180
21.140625000000 20.625000000000 5.506999015808 101 101 101
21.156250000000 20.625000000000 5.433999061584 179 179 179
21.156250000000 20.625000000000 5.356999397278 177 177 177
21.171875000000 20.625000000000 5.282000541687 115 115 115
21.343750000000 20.500000000000 4.678000450134 70 70 70
21.359375000000 20.500000000000 4.599999427795 84 84 84
21.328125000000 20.500000000000 4.522000312805 44 44 44
21.015625000000 20.750000000000 2.866999626160 42 42 42
21.015625000000 20.750000000000 2.789000511169 47 47 47
21.171875000000 20.437500000000 5.824999809265 134 134 134
21.187500000000 20.437500000000 5.747000694275 161 161 161
21.171875000000 20.437500000000 5.667000770569 168 168 168
21.203125000000 20.437500000000 5.363999366760 180 180 180
21.187500000000 20.437500000000 5.283999443054 168 168 168
21.218750000000 20.437500000000 5.210000038147 135 135 135
21.218750000000 20.312500000000 5.911000251770 117 117 117
21.234375000000 20.312500000000 5.834000587463 132 132 132
21.234375000000 20.312500000000 5.754000663757 135 135 135
21.250000000000 20.312500000000 5.290999412537 145 145 145
21.265625000000 20.312500000000 5.213999748230 171 171 171
21.250000000000 20.312500000000 5.136000633240 82 82 82
23.312500000000 14.312500000000 5.835000038147 114 114 114
23.281250000000 14.312500000000 5.727999687195 110 110 110
23.250000000000 14.375000000000 5.211998939514 86 86 86
23.218750000000 14.375000000000 5.110999107361 44 44 44
23.359375000000 14.187500000000 5.738999366760 113 113 113
23.359375000000 14.187500000000 5.634999275208 104 104 104
23.375000000000 14.187500000000 5.532999992371 37 37 37
23.328125000000 14.187500000000 5.321999549866 86 86 86
23.312500000000 14.187500000000 5.219000816345 91 91 91
23.281250000000 14.187500000000 5.115000724792 70 70 70
23.468750000000 14.000000000000 5.647999763489 185 185 185
23.406250000000 14.000000000000 5.536999702454 101 101 101
23.421875000000 14.000000000000 5.433999061584 111 111 111
23.406250000000 14.000000000000 5.328000068665 105 105 105
23.375000000000 14.000000000000 5.223999977112 69 69 69
23.437500000000 13.875000000000 5.957999229431 23 23 23
23.453125000000 13.875000000000 5.855000495911 150 150 150
23.453125000000 13.875000000000 5.749999046326 151 151 151
23.468750000000 13.875000000000 5.647000312805 161 161 161
23.453125000000 13.875000000000 5.540999412537 161 161 161
23.453125000000 13.875000000000 5.435999870300 158 158 158
23.453125000000 13.875000000000 5.332999229431 165 165 165
23.453125000000 13.875000000000 5.227999687195 171 171 171
23.437500000000 13.875000000000 5.123999595642 176 176 176
23.437500000000 13.875000000000 5.020998954773 183 183 183
23.437500000000 13.875000000000 4.917000770569 185 185 185
23.421875000000 13.875000000000 4.814000129700 195 195 195
23.421875000000 13.875000000000 4.710999488831 196 196 196
23.421875000000 13.875000000000 4.608000755310 204 204 204
23.421875000000 13.875000000000 4.505999565125 209 209 209
23.406250000000 13.875000000000 4.402998924255 208 208 208
23.406250000000 13.875000000000 4.300999641418 193 193 193
23.421875000000 13.875000000000 4.196999549866 255 255 255
23.406250000000 13.875000000000 4.095000267029 230 230 230
23.390625000000 13.875000000000 3.992999076843 203 203 203
23.390625000000 13.875000000000 3.890999794006 185 185 185
23.390625000000 13.875000000000 3.786999702454 169 169 169
23.359375000000 13.875000000000 3.685999870300 147 147 147
23.359375000000 13.875000000000 3.582999229431 134 134 134
23.375000000000 13.875000000000 3.477999687195 135 135 135
23.375000000000 13.875000000000 3.376000404358 109 109 109
23.468750000000 13.875000000000 3.252999305725 255 255 255
23.359375000000 13.875000000000 3.168000221252 105 105 105
23.406250000000 13.875000000000 3.053000450134 192 192 192
23.468750000000 13.812500000000 2.716000556946 236 236 236
23.359375000000 13.750000000000 5.945000648499 12 12 12
23.375000000000 13.750000000000 5.844000816345 33 33 33
23.359375000000 13.750000000000 5.737999916077 40 40 40
23.421875000000 13.750000000000 5.641999244690 94 94 94
23.406250000000 13.750000000000 5.536000251770 95 95 95
23.375000000000 13.750000000000 5.325999259949 106 106 106
23.375000000000 13.750000000000 5.223999977112 109 109 109
23.312500000000 13.812500000000 5.116999626160 83 83 83
23.312500000000 13.812500000000 5.015000343323 96 96 96
23.312500000000 13.812500000000 4.912999153137 109 109 109
23.312500000000 13.812500000000 4.810999870300 113 113 113
23.312500000000 13.812500000000 4.710000038147 138 138 138
23.312500000000 13.812500000000 4.609000205994 157 157 157
23.281250000000 13.812500000000 4.508000373840 177 177 177
23.281250000000 13.812500000000 4.407000541687 189 189 189
23.281250000000 13.812500000000 4.306000709534 203 203 203
23.281250000000 13.812500000000 4.204998970032 241 241 241
23.281250000000 13.812500000000 4.105000495911 230 230 230
23.250000000000 13.812500000000 4.004000663757 218 218 218
23.281250000000 13.812500000000 3.902998924255 211 211 211
23.250000000000 13.812500000000 3.801999092102 209 209 209
23.250000000000 13.812500000000 3.700999259949 206 206 206
23.250000000000 13.812500000000 3.598999977112 197 197 197
23.250000000000 13.812500000000 3.497000694275 196 196 196
23.250000000000 13.812500000000 3.397000312805 194 194 194
23.250000000000 13.812500000000 3.294999122620 190 190 190
23.250000000000 13.812500000000 3.192000389099 188 188 188
23.218750000000 13.812500000000 3.089999198914 181 181 181
23.218750000000 13.812500000000 2.780999183655 177 177 177
23.218750000000 13.812500000000 2.676999092102 174 174 174
23.687500000000 13.500000000000 5.785000801086 79 79 79
23.687500000000 13.500000000000 5.675999641418 85 85 85
23.765625000000 13.437500000000 5.578999519348 161 161 161
23.640625000000 13.500000000000 5.244000434875 99 99 99
23.625000000000 13.500000000000 5.137000083923 99 99 99
23.750000000000 13.312500000000 5.685000419617 35 35 35
23.812500000000 13.312500000000 5.148999214172 196 196 196
20.968750000000 21.375000000000 5.895998954773 215 215 215
20.968750000000 21.375000000000 5.829998970032 224 224 224
20.968750000000 21.375000000000 5.763998985291 223 223 223
20.968750000000 21.375000000000 5.693999290466 195 195 195
20.937500000000 21.375000000000 5.293000221252 198 198 198
20.906250000000 21.375000000000 5.227000236511 198 198 198
20.937500000000 21.375000000000 5.164000511169 203 203 203
20.937500000000 21.375000000000 5.101000785828 160 160 160
20.984375000000 21.250000000000 5.835999488831 201 201 201
21.000000000000 21.250000000000 5.769999504089 214 214 214
21.000000000000 21.250000000000 5.702000617981 215 215 215
21.000000000000 21.250000000000 5.636000633240 220 220 220
20.984375000000 21.250000000000 5.432999610901 23 23 23
20.984375000000 21.250000000000 5.366999626160 198 198 198
20.968750000000 21.250000000000 5.300999641418 195 195 195
20.984375000000 21.250000000000 5.235999107361 203 203 203
20.984375000000 21.250000000000 5.171000480652 83 83 83
21.140625000000 21.187500000000 4.668000221252 109 109 109
21.140625000000 21.187500000000 4.602000236511 127 127 127
21.140625000000 21.187500000000 4.536999702454 111 111 111
21.015625000000 21.062500000000 6.050999641418 25 25 25
21.015625000000 21.062500000000 5.776999473572 63 63 63
21.031250000000 21.062500000000 5.710999488831 215 215 215
21.031250000000 21.062500000000 5.644000053406 215 215 215
21.031250000000 21.062500000000 5.574999809265 215 215 215
21.015625000000 21.062500000000 5.506999015808 120 120 120
21.015625000000 21.062500000000 5.439000129700 195 195 195
21.015625000000 21.062500000000 5.373000144958 196 196 196
21.015625000000 21.062500000000 5.307999610901 196 196 196
21.187500000000 21.062500000000 4.800999641418 62 62 62
21.187500000000 21.062500000000 4.735999107361 122 122 122
21.187500000000 21.062500000000 4.668999671936 124 124 124
21.125000000000 21.062500000000 4.602000236511 119 119 119
21.187500000000 21.062500000000 4.537999153137 97 97 97
21.156250000000 21.062500000000 4.471999168396 98 98 98
21.109375000000 21.000000000000 4.405999183655 48 48 48
21.125000000000 21.000000000000 4.341000556946 51 51 51
21.187500000000 21.062500000000 4.275000572205 49 49 49
20.968750000000 20.937500000000 6.102999687195 114 114 114
21.015625000000 20.937500000000 6.050000190735 130 130 130
20.937500000000 20.937500000000 5.953999519348 138 138 138
21.031250000000 20.937500000000 5.914999961853 85 85 85
21.062500000000 20.937500000000 5.651000022888 214 214 214
21.062500000000 20.937500000000 5.581999778748 200 200 200
21.062500000000 20.937500000000 5.515999794006 209 209 209
21.062500000000 20.937500000000 5.446999549866 204 204 204
21.062500000000 20.937500000000 5.380000114441 200 200 200
21.218750000000 20.875000000000 4.804999351501 82 82 82
21.234375000000 20.875000000000 4.738999366760 121 121 121
21.234375000000 20.875000000000 4.672999382019 131 131 131
21.062500000000 20.937500000000 4.599999427795 194 194 194
21.203125000000 20.875000000000 4.539999961853 108 108 108
21.187500000000 20.875000000000 4.473000526428 136 136 136
21.109375000000 20.875000000000 4.407000541687 161 161 161
21.203125000000 20.875000000000 4.342000007629 168 168 168
21.218750000000 20.875000000000 4.276000022888 153 153 153
21.218750000000 20.875000000000 4.210000038147 175 175 175
21.218750000000 20.875000000000 4.144000053406 132 132 132
20.906250000000 20.812500000000 6.152998924255 27 27 27
20.953125000000 20.812500000000 6.096999168396 122 122 122
20.906250000000 20.812500000000 6.016999244690 110 110 110
20.906250000000 20.812500000000 5.947999000549 168 168 168
20.984375000000 20.812500000000 5.900000572205 167 167 167
20.953125000000 20.812500000000 5.824999809265 168 168 168
20.953125000000 20.812500000000 5.756999015808 169 169 169
20.953125000000 20.812500000000 5.689000129700 173 173 173
20.968750000000 20.812500000000 5.626999855042 173 173 173
20.953125000000 20.812500000000 5.557000160217 174 174 174
20.953125000000 20.812500000000 5.491999626160 181 181 181
20.953125000000 20.812500000000 5.425999641418 182 182 182
20.953125000000 20.812500000000 5.362000465393 187 187 187
20.953125000000 20.812500000000 5.294999122620 190 190 190
20.953125000000 20.812500000000 5.231999397278 186 186 186
20.953125000000 20.812500000000 5.167000770569 197 197 197
20.953125000000 20.812500000000 5.103999137878 199 199 199
20.953125000000 20.812500000000 5.039999961853 206 206 206
20.953125000000 20.812500000000 4.976000785828 211 211 211
20.968750000000 20.812500000000 4.912999153137 215 215 215
20.968750000000 20.812500000000 4.848999977112 219 219 219
20.968750000000 20.812500000000 4.786000251770 228 228 228
20.984375000000 20.812500000000 4.723000526428 253 253 253
20.968750000000 20.812500000000 4.658999443054 252 252 252
20.968750000000 20.812500000000 4.595999717712 255 255 255
20.984375000000 20.812500000000 4.532999992371 255 255 255
20.968750000000 20.812500000000 4.469000816345 255 255 255
20.968750000000 20.812500000000 4.405999183655 255 255 255
20.968750000000 20.812500000000 4.342999458313 252 252 252
20.984375000000 20.812500000000 4.279999732971 252 252 252
20.984375000000 20.812500000000 4.216000556946 244 244 244
20.984375000000 20.812500000000 4.152998924255 231 231 231
20.984375000000 20.812500000000 4.089999198914 231 231 231
20.984375000000 20.812500000000 4.026000022888 216 216 216
20.984375000000 20.812500000000 3.963000297546 218 218 218
20.984375000000 20.812500000000 3.898999214172 216 216 216
20.984375000000 20.812500000000 3.835000038147 212 212 212
20.984375000000 20.812500000000 3.770998954773 213 213 213
20.984375000000 20.812500000000 3.706999778748 208 208 208
20.984375000000 20.812500000000 3.641999244690 197 197 197
20.984375000000 20.812500000000 3.578000068665 196 196 196
20.984375000000 20.812500000000 3.512000083923 193 193 193
20.984375000000 20.812500000000 3.447999000549 189 189 189
21.000000000000 20.812500000000 3.380999565125 183 183 183
21.000000000000 20.812500000000 3.314999580383 182 182 182
21.000000000000 20.812500000000 3.248999595642 180 180 180
21.015625000000 20.812500000000 2.489000320435 152 152 152
21.000000000000 20.687500000000 6.110999107361 52 52 52
21.140625000000 20.625000000000 6.085999488831 91 91 91
21.140625000000 20.625000000000 5.731999397278 186 186 186
21.140625000000 20.625000000000 5.664999961853 204 204 204
21.140625000000 20.625000000000 5.595999717712 207 207 207
21.140625000000 20.625000000000 5.527998924255 201 201 201
21.156250000000 20.625000000000 5.463000297546 215 215 215
21.140625000000 20.625000000000 5.394999504089 222 222 222
21.140625000000 20.625000000000 5.328000068665 209 209 209
21.312500000000 20.625000000000 4.811999320984 88 88 88
21.312500000000 20.625000000000 4.744999885559 123 123 123
21.250000000000 20.625000000000 4.674000740051 93 93 93
21.265625000000 20.625000000000 4.608000755310 111 111 111
21.281250000000 20.625000000000 4.542000770569 110 110 110
21.312500000000 20.625000000000 4.476000785828 117 117 117
21.328125000000 20.625000000000 4.408999443054 129 129 129
21.312500000000 20.625000000000 4.342000007629 127 127 127
21.312500000000 20.625000000000 4.275000572205 117 117 117
21.156250000000 20.500000000000 5.810999870300 192 192 192
21.156250000000 20.500000000000 5.741000175476 199 199 199
21.156250000000 20.500000000000 5.671999931335 214 214 214
21.171875000000 20.500000000000 5.603999137878 188 188 188
21.187500000000 20.500000000000 5.404999732971 223 223 223
21.187500000000 20.500000000000 5.336998939514 220 220 220
21.187500000000 20.500000000000 5.269000053406 221 221 221
21.203125000000 20.500000000000 5.203999519348 142 142 142
21.343750000000 20.500000000000 4.679999351501 109 109 109
21.343750000000 20.500000000000 4.612999916077 118 118 118
21.328125000000 20.500000000000 4.544999122620 113 113 113
21.218750000000 20.375000000000 5.890999794006 195 195 195
21.203125000000 20.375000000000 5.818999290466 197 197 197
21.203125000000 20.375000000000 5.748999595642 204 204 204
21.218750000000 20.375000000000 5.681000709534 169 169 169
21.234375000000 20.375000000000 5.341000556946 212 212 212
21.234375000000 20.375000000000 5.275000572205 218 218 218
21.234375000000 20.375000000000 5.206999778748 212 212 212
21.234375000000 20.375000000000 5.140000343323 205 205 205
21.250000000000 20.250000000000 5.829998970032 156 156 156
21.250000000000 20.250000000000 5.761000633240 159 159 159
21.281250000000 20.250000000000 5.279999732971 179 179 179
21.281250000000 20.250000000000 5.211998939514 118 118 118
23.281250000000 14.375000000000 5.740000724792 165 165 165
23.218750000000 14.375000000000 5.200999259949 164 164 164
23.328125000000 14.250000000000 5.841000556946 125 125 125
23.328125000000 14.250000000000 5.748999595642 184 184 184
23.312500000000 14.250000000000 5.657999992371 183 183 183
23.296875000000 14.250000000000 5.297999382019 132 132 132
23.281250000000 14.250000000000 5.206999778748 171 171 171
23.281250000000 14.250000000000 5.117999076843 171 171 171
23.375000000000 14.125000000000 5.756999015808 112 112 112
23.375000000000 14.125000000000 5.664999961853 183 183 183
23.375000000000 14.125000000000 5.574999809265 178 178 178
23.375000000000 14.125000000000 5.394000053406 65 65 65
23.343750000000 14.125000000000 5.303000450134 171 171 171
23.343750000000 14.125000000000 5.213000297546 173 173 173
23.406250000000 14.000000000000 5.671999931335 86 86 86
23.421875000000 14.000000000000 5.584000587463 174 174 174
23.421875000000 14.000000000000 5.491999626160 172 172 172
23.421875000000 14.000000000000 5.401000022888 185 185 185
23.421875000000 14.000000000000 5.310999870300 181 181 181
23.406250000000 14.000000000000 5.219000816345 78 78 78
23.343750000000 14.000000000000 4.329998970032 9 9 9
23.484375000000 13.875000000000 5.866000175476 155 155 155
23.468750000000 13.875000000000 5.772000312805 162 162 162
23.468750000000 13.875000000000 5.678999900818 154 154 154
23.453125000000 13.875000000000 5.585000038147 159 159 159
23.453125000000 13.875000000000 5.494999885559 160 160 160
23.453125000000 13.875000000000 5.401999473572 159 159 159
23.437500000000 13.875000000000 5.310999870300 166 166 166
23.421875000000 13.875000000000 5.220000267029 167 167 167
23.437500000000 13.875000000000 5.130999565125 164 164 164
23.421875000000 13.875000000000 5.039999961853 168 168 168
23.421875000000 13.875000000000 4.949999809265 169 169 169
