5.453125000000 4.000000000000 5.372000694275 201 201 201
5.468750000000 4.000000000000 5.511000633240 204 204 204
5.453125000000 4.000000000000 5.651999473572 207 207 207
5.453125000000 4.000000000000 5.792000770569 201 201 201
5.453125000000 4.000000000000 5.932999610901 196 196 196
5.453125000000 4.000000000000 6.932999610901 209 209 209
5.453125000000 4.000000000000 7.077000617981 205 205 205
5.468750000000 4.000000000000 7.512000083923 81 81 81
5.468750000000 4.000000000000 7.660000801086 183 183 183
5.453125000000 4.000000000000 7.813000679016 160 160 160
5.500000000000 4.062500000000 3.696999549866 24 24 24
5.484375000000 4.000000000000 3.835999488831 51 51 51
5.484375000000 4.000000000000 3.976000785828 84 84 84
5.484375000000 4.000000000000 4.115000724792 110 110 110
5.484375000000 4.000000000000 4.255000114441 105 105 105
5.453125000000 4.000000000000 6.074999809265 183 183 183
5.453125000000 4.000000000000 6.789000511169 97 97 97
5.453125000000 4.000000000000 7.223000526428 30 30 30
5.343750000000 4.250000000000 7.542000770569 21 21 21
5.000000000000 4.812500000000 7.470000267029 54 54 54
5.093750000000 5.062500000000 7.440999031067 68 68 68
5.046875000000 5.187500000000 7.453999519348 102 102 102
5.031250000000 5.312500000000 7.460999488831 120 120 120
4.953125000000 5.375000000000 7.477000236511 144 144 144
4.906250000000 5.500000000000 7.485999107361 135 135 135
4.937500000000 5.687500000000 7.484000205994 22 22 22
4.703125000000 6.312500000000 7.383999824524 26 26 26
4.671875000000 6.437500000000 7.395998954773 59 59 59
4.625000000000 6.562500000000 7.404999732971 95 95 95
4.593750000000 6.687500000000 7.411000251770 90 90 90
4.531250000000 6.812500000000 7.112000465393 83 83 83
4.562500000000 6.812500000000 7.417000770569 91 91 91
4.468750000000 6.875000000000 7.122000694275 153 153 153
4.468750000000 6.875000000000 7.279999732971 152 152 152
4.531250000000 6.937500000000 7.425000190735 88 88 88
4.437500000000 7.000000000000 7.130999565125 183 183 183
4.421875000000 7.000000000000 7.289999961853 151 151 151
4.468750000000 7.062500000000 7.438000679016 45 45 45
4.390625000000 7.125000000000 7.137000083923 203 203 203
4.390625000000 7.125000000000 7.296000480652 145 145 145
4.437500000000 7.187500000000 7.442999839783 15 15 15
4.359375000000 7.250000000000 7.144000053406 166 166 166
4.359375000000 7.250000000000 7.306000709534 139 139 139
4.312500000000 7.437500000000 7.154999732971 170 170 170
4.296875000000 7.437500000000 7.317999839783 116 116 116
4.265625000000 7.562500000000 7.168000221252 184 184 184
4.265625000000 7.562500000000 7.325999259949 107 107 107
4.218750000000 7.687500000000 7.178000450134 146 146 146
4.234375000000 7.687500000000 7.334000587463 68 68 68
4.187500000000 7.812500000000 7.185999870300 201 201 201
4.203125000000 7.812500000000 7.342999458313 81 81 81
4.140625000000 7.937500000000 7.196000099182 174 174 174
4.156250000000 8.000000000000 7.352000236511 22 22 22
4.093750000000 8.062500000000 7.204998970032 195 195 195
4.140625000000 8.125000000000 7.355999946594 39 39 39
4.062500000000 8.187500000000 7.210000038147 126 126 126
4.093750000000 8.250000000000 7.360999107361 37 37 37
4.031250000000 8.312500000000 7.050000190735 4 4 4
4.031250000000 8.312500000000 7.216000556946 154 154 154
4.078125000000 8.375000000000 7.366999626160 78 78 78
4.015625000000 8.437500000000 7.051999092102 18 18 18
3.968750000000 8.437500000000 7.221999168396 111 111 111
4.015625000000 8.500000000000 7.373000144958 87 87 87
3.937500000000 8.562500000000 7.063000679016 38 38 38
3.937500000000 8.562500000000 7.227999687195 136 136 136
4.000000000000 8.625000000000 7.380000114441 96 96 96
3.906250000000 8.687500000000 7.068999290466 60 60 60
3.906250000000 8.687500000000 7.231999397278 168 168 168
3.937500000000 8.750000000000 7.387000083923 99 99 99
3.875000000000 8.812500000000 7.077000617981 82 82 82
3.875000000000 8.812500000000 7.240000724792 224 224 224
3.921875000000 8.875000000000 7.393000602722 82 82 82
3.843750000000 9.000000000000 7.078000068665 98 98 98
3.828125000000 8.937500000000 7.247000694275 201 201 201
3.875000000000 9.000000000000 7.400000572205 85 85 85
3.812500000000 9.125000000000 7.086998939514 75 75 75
3.812500000000 9.125000000000 7.411999702454 67 67 67
3.781250000000 9.250000000000 7.418999671936 41 41 41
3.781250000000 9.375000000000 7.421999931335 24 24 24
3.468750000000 10.187500000000 7.466000556946 21 21 21
4.046875000000 10.875000000000 2.780999183655 162 162 162
4.046875000000 10.875000000000 2.940999031067 173 173 173
4.000000000000 10.875000000000 3.248000144958 223 223 223
3.984375000000 10.875000000000 3.404000282288 215 215 215
3.968750000000 10.812500000000 3.557999610901 211 211 211
3.937500000000 10.812500000000 3.713999748230 220 220 220
3.921875000000 10.812500000000 3.869000434875 216 216 216
3.906250000000 10.812500000000 4.025000572205 211 211 211
3.875000000000 10.750000000000 4.181000709534 190 190 190
3.484375000000 10.562500000000 6.949000358582 155 155 155
3.453125000000 10.562500000000 7.122000694275 154 154 154
3.437500000000 10.562500000000 7.296000480652 154 154 154
3.421875000000 10.562500000000 7.469000816345 143 143 143
3.375000000000 10.500000000000 7.648999214172 145 145 145
3.343750000000 10.500000000000 7.824999809265 132 132 132
3.343750000000 10.500000000000 8.005999565125 128 128 128
4.031250000000 10.875000000000 3.092999458313 193 193 193
3.859375000000 10.750000000000 4.336998939514 203 203 203
3.843750000000 10.750000000000 4.494999885559 188 188 188
3.828125000000 10.750000000000 4.651999473572 170 170 170
3.812500000000 10.750000000000 4.810999870300 155 155 155
3.750000000000 10.687500000000 5.129000663757 139 139 139
3.718750000000 10.687500000000 5.289999961853 140 140 140
3.718750000000 10.687500000000 5.449999809265 131 131 131
3.687500000000 10.687500000000 5.612000465393 125 125 125
3.593750000000 10.625000000000 6.269999504089 78 78 78
3.578125000000 10.625000000000 6.435000419617 88 88 88
3.546875000000 10.562500000000 6.605999946594 70 70 70
3.515625000000 10.562500000000 6.776000022888 97 97 97
4.000000000000 11.000000000000 3.094000816345 138 138 138
3.906250000000 10.937500000000 3.237000465393 128 128 128
3.906250000000 10.937500000000 3.394999504089 122 122 122
3.875000000000 10.937500000000 3.550999641418 119 119 119
3.843750000000 10.937500000000 3.706999778748 119 119 119
3.843750000000 10.937500000000 3.865000724792 122 122 122
3.812500000000 10.875000000000 4.022000312805 120 120 120
3.781250000000 10.875000000000 4.178999900818 116 116 116
3.765625000000 10.875000000000 4.336998939514 116 116 116
3.734375000000 10.875000000000 4.494999885559 107 107 107
3.718750000000 10.812500000000 4.654000282288 100 100 100
3.703125000000 10.812500000000 4.814000129700 85 85 85
3.687500000000 10.812500000000 4.973999977112 93 93 93
3.656250000000 10.812500000000 5.134999275208 90 90 90
3.656250000000 10.812500000000 5.294999122620 88 88 88
3.625000000000 10.750000000000 5.457999229431 82 82 82
3.437500000000 10.750000000000 6.456000328064 28 28 28
3.437500000000 10.750000000000 6.623000144958 28 28 28
3.593750000000 10.750000000000 5.620999336243 71 71 71
5.296875000000 3.625000000000 7.706000328064 73 73 73
5.250000000000 3.687500000000 7.565999031067 152 152 152
5.171875000000 3.937500000000 7.584000587463 121 121 121
5.687500000000 3.625000000000 2.886000633240 26 26 26
5.640625000000 3.875000000000 7.449000358582 17 17 17
5.656250000000 3.875000000000 7.297999382019 37 37 37
5.640625000000 3.875000000000 7.006999015808 118 118 118
5.593750000000 3.937500000000 6.869999885559 226 226 226
5.656250000000 3.875000000000 6.711998939514 103 103 103
5.687500000000 3.875000000000 6.564000129700 115 115 115
5.687500000000 3.875000000000 6.419999122620 118 118 118
5.687500000000 3.875000000000 6.276999473572 122 122 122
5.687500000000 3.875000000000 6.133999824524 123 123 123
5.687500000000 3.875000000000 5.991999626160 132 132 132
5.687500000000 3.875000000000 5.849999427795 128 128 128
5.703125000000 3.875000000000 5.706999778748 142 142 142
5.703125000000 3.875000000000 5.564999580383 140 140 140
5.687500000000 3.875000000000 5.425000190735 150 150 150
5.703125000000 3.875000000000 5.283999443054 129 129 129
5.687500000000 3.875000000000 5.143000602722 146 146 146
5.703125000000 3.875000000000 5.002999305725 154 154 154
5.703125000000 3.875000000000 4.862000465393 157 157 157
5.703125000000 3.875000000000 4.721999168396 157 157 157
5.718750000000 3.875000000000 4.581999778748 146 146 146
5.703125000000 3.875000000000 4.442000389099 153 153 153
5.703125000000 3.875000000000 4.301999092102 163 163 163
5.718750000000 3.875000000000 4.161999702454 159 159 159
5.718750000000 3.875000000000 4.022000312805 157 157 157
5.718750000000 3.875000000000 3.880999565125 145 145 145
5.718750000000 3.875000000000 3.741999626160 138 138 138
5.718750000000 3.875000000000 3.599999427795 150 150 150
5.718750000000 3.875000000000 3.459000587463 157 157 157
5.734375000000 3.875000000000 3.318999290466 154 154 154
5.718750000000 3.875000000000 3.176999092102 166 166 166
5.718750000000 3.875000000000 3.035000801086 166 166 166
5.734375000000 3.875000000000 2.891999244690 166 166 166
5.718750000000 3.875000000000 2.748999595642 192 192 192
5.734375000000 3.875000000000 2.608000755310 170 170 170
5.765625000000 4.000000000000 7.862999916077 111 111 111
5.750000000000 4.000000000000 7.716000556946 178 178 178
5.750000000000 4.000000000000 7.567999839783 143 143 143
5.750000000000 4.000000000000 7.421000480652 186 186 186
5.734375000000 4.000000000000 7.276999473572 188 188 188
5.765625000000 4.000000000000 7.126000404358 191 191 191
5.750000000000 4.000000000000 6.984999656677 204 204 204
5.750000000000 4.000000000000 6.836998939514 188 188 188
5.765625000000 4.000000000000 6.692999839783 193 193 193
5.750000000000 4.000000000000 6.550999641418 193 193 193
5.750000000000 4.000000000000 6.407999992371 193 193 193
5.750000000000 4.000000000000 6.265000343323 196 196 196
5.765625000000 4.000000000000 6.123000144958 196 196 196
5.765625000000 4.000000000000 5.980999946594 188 188 188
5.750000000000 4.000000000000 5.842000007629 193 193 193
5.765625000000 4.000000000000 5.699000358582 188 188 188
5.765625000000 4.000000000000 5.558999061584 197 197 197
5.765625000000 4.000000000000 5.418999671936 189 189 189
5.781250000000 4.000000000000 5.279000282288 200 200 200
5.765625000000 4.000000000000 5.140000343323 198 198 198
5.781250000000 4.000000000000 4.999999046326 197 197 197
5.781250000000 4.000000000000 4.859999656677 197 197 197
5.781250000000 4.000000000000 4.720999717712 184 184 184
5.781250000000 4.000000000000 4.581999778748 196 196 196
5.765625000000 4.000000000000 4.442999839783 192 192 192
5.765625000000 4.000000000000 4.303000450134 189 189 189
5.765625000000 4.000000000000 4.164000511169 190 190 190
5.781250000000 4.000000000000 4.023999214172 196 196 196
5.781250000000 4.000000000000 3.886000633240 188 188 188
5.796875000000 4.000000000000 3.745999336243 189 189 189
5.781250000000 4.000000000000 3.605000495911 195 195 195
5.781250000000 4.000000000000 3.464999198914 185 185 185
5.781250000000 4.000000000000 3.324999809265 183 183 183
5.781250000000 4.000000000000 3.183999061584 167 167 167
5.796875000000 4.000000000000 3.044999122620 171 171 171
5.796875000000 4.000000000000 2.902998924255 170 170 170
5.812500000000 3.937500000000 2.620999336243 184 184 184
5.781250000000 4.125000000000 7.553999900818 9 9 9
4.984375000000 4.562500000000 7.623000144958 93 93 93
5.468750000000 4.687500000000 7.485999107361 67 67 67
5.421875000000 4.875000000000 7.502999305725 59 59 59
5.390625000000 5.062500000000 7.511000633240 51 51 51
5.312500000000 5.187500000000 7.525000572205 27 27 27
5.031250000000 6.125000000000 7.438000679016 10 10 10
4.984375000000 6.312500000000 7.446000099182 34 34 34
4.937500000000 6.500000000000 7.460999488831 55 55 55
4.875000000000 6.625000000000 7.471999168396 48 48 48
4.843750000000 6.812500000000 7.484000205994 10 10 10
4.734375000000 6.875000000000 7.349999427795 71 71 71
4.765625000000 6.875000000000 7.186999320984 56 56 56
4.734375000000 7.000000000000 7.355000495911 128 128 128
4.734375000000 7.000000000000 7.196999549866 144 144 144
4.687500000000 7.187500000000 7.366999626160 70 70 70
4.656250000000 7.187500000000 7.210000038147 170 170 170
4.625000000000 7.375000000000 7.376999855042 29 29 29
4.609375000000 7.375000000000 7.223000526428 154 154 154
4.578125000000 7.562500000000 7.387999534607 15 15 15
4.562500000000 7.562500000000 7.230000495911 128 128 128
4.531250000000 7.687500000000 7.395998954773 4 4 4
4.500000000000 7.750000000000 7.241999626160 155 155 155
4.515625000000 7.875000000000 7.394000053406 14 14 14
4.453125000000 7.875000000000 7.248000144958 115 115 115
4.437500000000 8.000000000000 7.407999992371 21 21 21
4.390625000000 8.062500000000 7.259999275208 146 146 146
4.390625000000 8.187500000000 7.421000480652 51 51 51
4.312500000000 8.312500000000 7.272999763489 132 132 132
4.343750000000 8.312500000000 7.105000495911 12 12 12
4.343750000000 8.437500000000 7.431000709534 57 57 57
4.281250000000 8.437500000000 7.282000541687 102 102 102
4.281250000000 8.437500000000 7.117999076843 42 42 42
4.296875000000 8.625000000000 7.442999839783 49 49 49
4.234375000000 8.625000000000 7.294999122620 112 112 112
4.250000000000 8.625000000000 7.127999305725 67 67 67
4.234375000000 8.750000000000 7.456000328064 25 25 25
4.187500000000 8.812500000000 7.304999351501 152 152 152
4.187500000000 8.812500000000 7.138998985291 112 112 112
4.187500000000 8.937500000000 7.470000267029 13 13 13
4.140625000000 9.000000000000 7.314999580383 129 129 129
4.140625000000 9.000000000000 7.150000572205 120 120 120
3.609375000000 10.375000000000 8.109999656677 87 87 87
3.593750000000 10.375000000000 7.936999320984 111 111 111
3.625000000000 10.375000000000 7.758999824524 80 80 80
3.703125000000 10.375000000000 7.395998954773 31 31 31
3.671875000000 10.500000000000 7.919999122620 67 67 67
3.703125000000 10.500000000000 7.738999366760 115 115 115
3.718750000000 10.500000000000 7.565999031067 153 153 153
3.734375000000 10.500000000000 6.881999015808 88 88 88
3.468750000000 10.625000000000 2.716000556946 204 204 204
3.750000000000 10.500000000000 7.050000190735 119 119 119
3.750000000000 10.625000000000 7.214999198914 16 16 16
3.796875000000 10.562500000000 7.039999961853 117 117 117
3.812500000000 10.562500000000 6.869000434875 161 161 161
3.828125000000 10.562500000000 6.699999809265 176 176 176
3.843750000000 10.562500000000 6.532000541687 171 171 171
3.843750000000 10.562500000000 6.365000724792 182 182 182
3.843750000000 10.562500000000 6.199999809265 173 173 173
3.859375000000 10.562500000000 6.035000801086 135 135 135
3.859375000000 10.562500000000 5.870999336243 97 97 97
3.906250000000 10.687500000000 6.193999290466 106 106 106
3.937500000000 10.687500000000 6.027998924255 140 140 140
3.937500000000 10.687500000000 5.862999916077 195 195 195
3.953125000000 10.625000000000 5.699999809265 195 195 195
3.968750000000 10.625000000000 5.537999153137 194 194 194
3.968750000000 10.625000000000 5.376000404358 180 180 180
3.984375000000 10.625000000000 5.214999198914 185 185 185
3.984375000000 10.625000000000 5.053999900818 148 148 148
4.000000000000 10.625000000000 4.894000053406 111 111 111
4.015625000000 10.750000000000 5.373999595642 88 88 88
4.062500000000 10.750000000000 5.211998939514 144 144 144
4.062500000000 10.750000000000 5.051999092102 194 194 194
4.093750000000 10.750000000000 4.891999244690 202 202 202
4.109375000000 10.750000000000 4.733000755310 211 211 211
4.109375000000 10.750000000000 4.574000358582 208 208 208
4.125000000000 10.750000000000 4.415999412537 206 206 206
4.125000000000 10.750000000000 4.256999015808 208 208 208
4.140625000000 10.750000000000 4.098999977112 152 152 152
4.125000000000 10.750000000000 3.939000129700 141 141 141
4.125000000000 10.750000000000 3.779999732971 64 64 64
3.718750000000 10.937500000000 2.756999015808 109 109 109
4.140625000000 10.875000000000 4.415999412537 102 102 102
4.187500000000 10.812500000000 4.258999824524 148 148 148
4.187500000000 10.812500000000 4.101000785828 186 186 186
4.203125000000 10.812500000000 3.943999290466 220 220 220
4.218750000000 10.812500000000 3.787999153137 211 211 211
4.234375000000 10.812500000000 3.630999565125 215 215 215
4.250000000000 10.812500000000 3.473999977112 218 218 218
4.250000000000 10.812500000000 3.317000389099 203 203 203
4.250000000000 10.812500000000 3.158999443054 192 192 192
4.265625000000 10.812500000000 3.001999855042 151 151 151
4.234375000000 10.812500000000 2.838999748230 163 163 163
4.187500000000 10.812500000000 2.671000480652 239 239 239
4.281250000000 10.937500000000 3.477000236511 85 85 85
4.281250000000 10.937500000000 3.318999290466 178 178 178
4.312500000000 10.937500000000 3.167000770569 160 160 160
4.343750000000 10.937500000000 3.011000633240 178 178 178
4.359375000000 10.875000000000 2.856999397278 173 173 173
4.359375000000 10.875000000000 2.699000358582 176 176 176
4.406250000000 11.000000000000 3.176999092102 7 7 7
4.515625000000 11.062500000000 2.880999565125 150 150 150
4.406250000000 11.000000000000 3.064999580383 117 117 117
4.375000000000 11.000000000000 2.905999183655 98 98 98
4.468750000000 11.000000000000 2.763998985291 23 23 23
4.390625000000 10.875000000000 2.752999305725 19 19 19
3.812500000000 11.000000000000 2.984000205994 80 80 80
4.187500000000 10.687500000000 3.192999839783 14 14 14
4.078125000000 10.750000000000 3.019000053406 133 133 133
4.187500000000 10.687500000000 2.877999305725 147 147 147
4.218750000000 10.687500000000 2.723000526428 156 156 156
4.046875000000 10.625000000000 3.964999198914 83 83 83
4.078125000000 10.625000000000 3.808999061584 141 141 141
4.093750000000 10.625000000000 3.652998924255 165 165 165
4.109375000000 10.625000000000 3.497000694275 204 204 204
4.125000000000 10.625000000000 3.341000556946 200 200 200
4.140625000000 10.562500000000 3.185000419617 194 194 194
4.140625000000 10.562500000000 3.027998924255 187 187 187
4.156250000000 10.562500000000 2.872000694275 178 178 178
4.156250000000 10.562500000000 2.713000297546 174 174 174
3.937500000000 10.562500000000 4.910000801086 25 25 25
3.968750000000 10.562500000000 4.751000404358 130 130 130
3.984375000000 10.562500000000 4.592999458313 151 151 151
4.000000000000 10.562500000000 4.435000419617 189 189 189
4.015625000000 10.500000000000 4.276999473572 198 198 198
4.031250000000 10.500000000000 4.119999885559 203 203 203
4.046875000000 10.500000000000 3.963000297546 204 204 204
4.046875000000 10.500000000000 3.804999351501 206 206 206
4.046875000000 10.500000000000 3.647000312805 202 202 202
4.046875000000 10.500000000000 3.488999366760 164 164 164
4.062500000000 10.500000000000 3.331000328064 127 127 127
3.984375000000 10.500000000000 3.164000511169 182 182 182
3.687500000000 10.687500000000 2.966000556946 94 94 94
3.765625000000 10.625000000000 2.814000129700 129 129 129
3.828125000000 10.500000000000 5.717000007629 21 21 21
3.875000000000 10.437500000000 5.553000450134 117 117 117
3.875000000000 10.437500000000 5.390999794006 145 145 145
3.875000000000 10.437500000000 5.230000495911 187 187 187
3.906250000000 10.437500000000 5.070000648499 197 197 197
3.906250000000 10.437500000000 4.910000801086 183 183 183
3.937500000000 10.437500000000 4.751000404358 207 207 207
3.937500000000 10.437500000000 4.592000007629 194 194 194
3.937500000000 10.437500000000 4.432999610901 161 161 161
3.937500000000 10.437500000000 4.273999214172 133 133 133
3.937500000000 10.437500000000 4.115000724792 76 76 76
3.531250000000 10.625000000000 2.776000022888 121 121 121
3.750000000000 10.375000000000 6.377999305725 101 101 101
3.781250000000 10.375000000000 6.210000038147 133 133 133
3.781250000000 10.375000000000 6.046999931335 173 173 173
3.781250000000 10.375000000000 5.883000373840 191 191 191
3.812500000000 10.375000000000 5.720000267029 185 185 185
3.812500000000 10.375000000000 5.557999610901 185 185 185
3.828125000000 10.375000000000 5.395998954773 152 152 152
3.828125000000 10.375000000000 5.234999656677 135 135 135
3.812500000000 10.375000000000 5.074999809265 102 102 102
3.343750000000 10.625000000000 2.748999595642 162 162 162
3.656250000000 10.312500000000 7.060000419617 109 109 109
3.671875000000 10.312500000000 6.890999794006 148 148 148
3.687500000000 10.312500000000 6.720999717712 172 172 172
3.703125000000 10.312500000000 6.553000450134 169 169 169
3.703125000000 10.312500000000 6.387000083923 175 175 175
3.718750000000 10.312500000000 6.221999168396 154 154 154
3.718750000000 10.312500000000 6.057999610901 123 123 123
3.718750000000 10.312500000000 5.894000053406 95 95 95
3.562500000000 10.250000000000 7.769000053406 91 91 91
3.578125000000 10.250000000000 7.595000267029 125 125 125
3.625000000000 10.187500000000 6.907000541687 130 130 130
3.593750000000 10.187500000000 6.741000175476 99 99 99
3.625000000000 10.187500000000 7.074999809265 136 136 136
3.500000000000 10.125000000000 8.138998985291 112 112 112
3.484375000000 10.125000000000 7.966000556946 154 154 154
3.515625000000 10.125000000000 7.786999702454 134 134 134
3.515625000000 10.125000000000 7.613999366760 98 98 98
3.531250000000 10.125000000000 7.436999320984 20 20 20
3.625000000000 9.937500000000 7.425999641418 28 28 28
3.968750000000 8.812500000000 7.176999092102 22 22 22
4.015625000000 8.687500000000 7.339999198914 138 138 138
4.015625000000 8.687500000000 7.171000480652 127 127 127
4.062500000000 8.562500000000 7.334000587463 142 142 142
4.062500000000 8.562500000000 7.165999412537 121 121 121
4.171875000000 8.375000000000 7.480000495911 15 15 15
4.093750000000 8.375000000000 7.331000328064 137 137 137
4.109375000000 8.375000000000 7.164999961853 118 118 118
4.187500000000 8.250000000000 7.478999137878 17 17 17
4.125000000000 8.250000000000 7.328000068665 132 132 132
4.140625000000 8.250000000000 7.161000251770 106 106 106
4.281250000000 8.062500000000 7.466000556946 21 21 21
4.187500000000 8.062500000000 7.324000358582 136 136 136
4.187500000000 8.062500000000 7.158999443054 104 104 104
4.312500000000 7.875000000000 7.457999229431 30 30 30
4.234375000000 7.937500000000 7.314999580383 135 135 135
4.234375000000 7.937500000000 7.151999473572 75 75 75
4.343750000000 7.687500000000 7.452000617981 26 26 26
4.281250000000 7.750000000000 7.307000160217 141 141 141
4.281250000000 7.750000000000 7.143000602722 37 37 37
4.390625000000 7.500000000000 7.439000129700 43 43 43
4.343750000000 7.562500000000 7.287999153137 147 147 147
4.343750000000 7.562500000000 7.130000114441 6 6 6
4.437500000000 7.375000000000 7.424000740051 8 8 8
4.390625000000 7.375000000000 7.276999473572 135 135 135
4.453125000000 7.250000000000 7.261000633240 134 134 134
4.500000000000 7.062500000000 7.405999183655 17 17 17
4.500000000000 7.062500000000 7.245999336243 127 127 127
4.562500000000 6.937500000000 7.395998954773 45 45 45
4.546875000000 6.875000000000 7.235999107361 107 107 107
4.593750000000 6.750000000000 7.390999794006 85 85 85
4.609375000000 6.750000000000 7.227999687195 151 151 151
4.625000000000 6.625000000000 7.388998985291 53 53 53
4.625000000000 6.625000000000 7.227999687195 49 49 49
4.812500000000 6.250000000000 7.508999824524 8 8 8
4.843750000000 6.125000000000 7.502999305725 15 15 15
4.906250000000 5.937500000000 7.488999366760 46 46 46
4.953125000000 5.812500000000 7.473999977112 56 56 56
5.000000000000 5.625000000000 7.463000297546 7 7 7
5.218750000000 5.000000000000 7.549000740051 3 3 3
5.265625000000 4.812500000000 7.543999671936 27 27 27
5.312500000000 4.625000000000 7.530999183655 52 52 52
5.375000000000 4.500000000000 7.520998954773 59 59 59
5.265625000000 4.375000000000 7.550000190735 136 136 136
5.406250000000 4.187500000000 7.515000343323 5 5 5
5.656250000000 3.812500000000 7.890999794006 12 12 12
5.656250000000 3.812500000000 7.741000175476 117 117 117
5.625000000000 3.812500000000 7.598000526428 101 101 101
5.593750000000 3.812500000000 7.460000038147 218 218 218
5.593750000000 3.812500000000 7.310999870300 203 203 203
5.593750000000 3.812500000000 7.165999412537 210 210 210
5.593750000000 3.812500000000 7.019999504089 240 240 240
5.593750000000 3.812500000000 6.874999046326 233 233 233
5.593750000000 3.812500000000 6.730999946594 232 232 232
5.640625000000 3.812500000000 6.577000617981 109 109 109
5.640625000000 3.812500000000 6.435000419617 115 115 115
5.640625000000 3.812500000000 6.292000770569 111 111 111
5.656250000000 3.812500000000 6.148999214172 105 105 105
5.625000000000 3.812500000000 6.011000633240 103 103 103
5.640625000000 3.812500000000 5.867999076843 103 103 103
5.640625000000 3.812500000000 5.727000236511 96 96 96
5.640625000000 3.812500000000 5.588000297546 105 105 105
5.640625000000 3.812500000000 5.446999549866 97 97 97
5.640625000000 3.812500000000 5.307000160217 105 105 105
5.640625000000 3.812500000000 5.167000770569 112 112 112
5.640625000000 3.812500000000 5.027998924255 109 109 109
5.640625000000 3.812500000000 4.887999534607 104 104 104
5.656250000000 3.750000000000 4.748999595642 104 104 104
5.640625000000 3.812500000000 4.609999656677 114 114 114
5.656250000000 3.750000000000 4.470999717712 113 113 113
5.656250000000 3.750000000000 4.331999778748 108 108 108
5.640625000000 3.812500000000 4.192999839783 117 117 117
5.656250000000 3.750000000000 4.053999900818 112 112 112
5.656250000000 3.750000000000 3.914999961853 118 118 118
5.671875000000 3.750000000000 3.776000022888 112 112 112
5.656250000000 3.750000000000 3.636000633240 110 110 110
5.656250000000 3.750000000000 3.494999885559 118 118 118
5.656250000000 3.750000000000 3.355999946594 109 109 109
5.656250000000 3.750000000000 3.216000556946 103 103 103
5.656250000000 3.750000000000 3.072999000549 116 116 116
5.656250000000 3.750000000000 2.932999610901 115 115 115
5.625000000000 3.687500000000 7.898999214172 33 33 33
5.593750000000 3.687500000000 7.754000663757 157 157 157
5.593750000000 3.687500000000 7.603999137878 134 134 134
5.593750000000 3.687500000000 7.459000587463 174 174 174
5.593750000000 3.687500000000 7.307999610901 178 178 178
5.593750000000 3.687500000000 7.164000511169 178 178 178
5.593750000000 3.687500000000 7.015000343323 176 176 176
5.593750000000 3.687500000000 6.870999336243 171 171 171
5.593750000000 3.687500000000 6.723999977112 182 182 182
5.593750000000 3.687500000000 6.581000328064 184 184 184
5.593750000000 3.687500000000 6.438000679016 180 180 180
5.593750000000 3.687500000000 6.294999122620 181 181 181
5.593750000000 3.687500000000 6.151999473572 177 177 177
5.625000000000 3.687500000000 6.008999824524 182 182 182
5.593750000000 3.687500000000 5.869000434875 180 180 180
5.593750000000 3.687500000000 5.727000236511 183 183 183
5.593750000000 3.687500000000 5.585999488831 180 180 180
5.625000000000 3.687500000000 5.445000648499 184 184 184
5.625000000000 3.687500000000 5.304999351501 175 175 175
5.625000000000 3.687500000000 5.164999961853 188 188 188
5.625000000000 3.687500000000 5.025000572205 184 184 184
5.625000000000 3.687500000000 4.886000633240 193 193 193
5.625000000000 3.687500000000 4.745999336243 193 193 193
5.625000000000 3.687500000000 4.605999946594 188 188 188
5.625000000000 3.687500000000 4.467000007629 192 192 192
5.625000000000 3.687500000000 4.327000617981 193 193 193
5.609375000000 3.625000000000 4.188000679016 192 192 192
5.625000000000 3.687500000000 4.047999382019 194 194 194
5.593750000000 3.687500000000 3.907999992371 181 181 181
5.609375000000 3.625000000000 3.768000602722 175 175 175
5.609375000000 3.625000000000 3.627999305725 181 181 181
5.609375000000 3.625000000000 3.487999916077 187 187 187
5.609375000000 3.625000000000 3.345999717712 186 186 186
5.609375000000 3.625000000000 3.204998970032 183 183 183
5.625000000000 3.625000000000 3.065999031067 186 186 186
5.609375000000 3.625000000000 2.924000740051 177 177 177
5.656250000000 3.625000000000 2.789000511169 166 166 166
5.656250000000 3.625000000000 2.644999504089 179 179 179
4.468750000000 11.000000000000 3.136000633240 113 113 113
4.328125000000 10.812500000000 2.988999366760 61 61 61
3.531250000000 10.750000000000 3.035000801086 49 49 49
4.031250000000 10.687500000000 2.676999092102 236 236 236
4.468750000000 10.750000000000 2.869999885559 130 130 130
4.437500000000 10.687500000000 3.001000404358 180 180 180
4.218750000000 10.687500000000 3.245999336243 23 23 23
4.187500000000 10.562500000000 2.697999000549 188 188 188
4.187500000000 10.562500000000 2.834000587463 191 191 191
4.171875000000 10.562500000000 2.967999458313 186 186 186
4.156250000000 10.562500000000 3.102000236511 194 194 194
4.125000000000 10.562500000000 3.235999107361 205 205 205
4.109375000000 10.562500000000 3.369999885559 201 201 201
4.093750000000 10.562500000000 3.505999565125 203 203 203
4.078125000000 10.562500000000 3.640000343323 204 204 204
4.062500000000 10.562500000000 3.775000572205 204 204 204
4.031250000000 10.562500000000 3.910000801086 200 200 200
4.015625000000 10.562500000000 4.044999122620 195 195 195
3.984375000000 10.562500000000 4.181000709534 177 177 177
3.968750000000 10.500000000000 4.317999839783 172 172 172
3.953125000000 10.500000000000 4.453999519348 150 150 150
3.921875000000 10.500000000000 4.592000007629 116 116 116
3.875000000000 10.500000000000 4.730999946594 20 20 20
4.000000000000 10.375000000000 3.636000633240 30 30 30
4.000000000000 10.375000000000 3.772999763489 89 89 89
4.015625000000 10.375000000000 3.910000801086 112 112 112
4.000000000000 10.375000000000 4.044999122620 132 132 132
3.984375000000 10.375000000000 4.182000160217 132 132 132
3.953125000000 10.375000000000 4.317999839783 175 175 175
3.937500000000 10.375000000000 4.454998970032 189 189 189
3.937500000000 10.375000000000 4.592000007629 197 197 197
3.921875000000 10.375000000000 4.730000495911 196 196 196
3.906250000000 10.375000000000 4.866999626160 185 185 185
3.890625000000 10.375000000000 5.005999565125 193 193 193
3.875000000000 10.375000000000 5.144999504089 181 181 181
3.859375000000 10.375000000000 5.285000801086 192 192 192
3.843750000000 10.375000000000 5.425000190735 187 187 187
3.812500000000 10.375000000000 5.567000389099 189 189 189
3.796875000000 10.375000000000 5.710000038147 181 181 181
3.781250000000 10.375000000000 5.852999687195 168 168 168
3.750000000000 10.375000000000 5.997000694275 151 151 151
3.718750000000 10.375000000000 6.144999504089 133 133 133
3.687500000000 10.375000000000 6.293000221252 96 96 96
3.765625000000 10.250000000000 5.713999748230 70 70 70
3.750000000000 10.250000000000 5.855999946594 97 97 97
3.750000000000 10.250000000000 5.998999595642 111 111 111
3.718750000000 10.250000000000 6.144000053406 129 129 129
3.703125000000 10.250000000000 6.289999961853 166 166 166
3.703125000000 10.250000000000 6.435000419617 175 175 175
3.687500000000 10.187500000000 6.581999778748 176 176 176
3.656250000000 10.187500000000 6.730000495911 172 172 172
3.656250000000 10.187500000000 6.879000663757 166 166 166
3.625000000000 10.187500000000 7.029999732971 164 164 164
3.593750000000 10.187500000000 7.185000419617 165 165 165
3.593750000000 10.187500000000 7.335999488831 148 148 148
3.562500000000 10.187500000000 7.497000694275 104 104 104
3.500000000000 10.187500000000 7.657999992371 86 86 86
3.531250000000 10.062500000000 7.353999137878 33 33 33
3.531250000000 10.062500000000 7.502999305725 62 62 62
3.531250000000 10.062500000000 7.654999732971 101 101 101
3.484375000000 10.062500000000 7.818999290466 125 125 125
3.484375000000 10.062500000000 7.974999427795 143 143 143
3.468750000000 10.062500000000 8.134999275208 49 49 49
3.625000000000 9.937500000000 7.481999397278 48 48 48
3.656250000000 9.812500000000 7.471999168396 11 11 11
3.687500000000 9.687500000000 7.467000007629 27 27 27
3.734375000000 9.562500000000 7.453000068665 94 94 94
3.796875000000 9.437500000000 7.446000099182 86 86 86
3.812500000000 9.250000000000 7.440999031067 84 84 84
3.875000000000 9.125000000000 7.432999610901 94 94 94
3.906250000000 9.000000000000 7.424000740051 98 98 98
3.953125000000 8.875000000000 7.417000770569 97 97 97
3.953125000000 8.750000000000 7.123000144958 90 90 90
3.968750000000 8.750000000000 7.410000801086 95 95 95
4.000000000000 8.625000000000 7.113999366760 71 71 71
3.984375000000 8.625000000000 7.261000633240 209 209 209
4.015625000000 8.625000000000 7.398999214172 70 70 70
4.015625000000 8.500000000000 7.109000205994 57 57 57
4.015625000000 8.500000000000 7.251999855042 162 162 162
4.062500000000 8.500000000000 7.387000083923 36 36 36
4.078125000000 8.375000000000 7.095999717712 9 9 9
4.062500000000 8.375000000000 7.242999076843 123 123 123
4.062500000000 8.375000000000 7.387999534607 45 45 45
4.125000000000 8.250000000000 7.228999137878 113 113 113
4.109375000000 8.187500000000 7.374999046326 58 58 58
4.125000000000 8.062500000000 7.226000785828 177 177 177
4.156250000000 8.062500000000 7.369000434875 68 68 68
4.171875000000 7.937500000000 7.220000267029 189 189 189
4.187500000000 7.937500000000 7.358000755310 95 95 95
4.218750000000 7.812500000000 7.213000297546 164 164 164
4.234375000000 7.812500000000 7.352000236511 114 114 114
4.265625000000 7.687500000000 7.204998970032 186 186 186
4.265625000000 7.687500000000 7.345999717712 130 130 130
4.312500000000 7.562500000000 7.196000099182 191 191 191
4.312500000000 7.562500000000 7.336998939514 156 156 156
4.390625000000 7.500000000000 7.459000587463 8 8 8
4.343750000000 7.375000000000 7.186999320984 184 184 184
4.343750000000 7.375000000000 7.331999778748 162 162 162
4.406250000000 7.375000000000 7.453999519348 37 37 37
4.406250000000 7.250000000000 7.176999092102 179 179 179
4.390625000000 7.250000000000 7.322999000549 149 149 149
4.453125000000 7.250000000000 7.446999549866 87 87 87
4.437500000000 7.125000000000 7.168999671936 192 192 192
4.421875000000 7.125000000000 7.314000129700 175 175 175
4.500000000000 7.125000000000 7.435999870300 102 102 102
4.484375000000 7.000000000000 7.161000251770 180 180 180
4.484375000000 7.000000000000 7.300999641418 171 171 171
4.546875000000 7.000000000000 7.424000740051 103 103 103
4.578125000000 6.875000000000 7.414999961853 60 60 60
4.625000000000 6.687500000000 7.404000282288 38 38 38
4.609375000000 6.562500000000 7.405999183655 70 70 70
4.593750000000 6.562500000000 7.269999504089 38 38 38
4.875000000000 5.937500000000 7.488999366760 31 31 31
4.968750000000 5.687500000000 7.467999458313 106 106 106
5.000000000000 5.562500000000 7.460000038147 105 105 105
5.046875000000 5.375000000000 7.445000648499 77 77 77
5.062500000000 5.250000000000 7.438000679016 8 8 8
5.078125000000 4.687500000000 7.577000617981 166 166 166
5.296875000000 4.562500000000 7.515999794006 91 91 91
5.343750000000 4.437500000000 7.505999565125 107 107 107
5.375000000000 4.312500000000 7.502999305725 94 94 94
5.375000000000 4.125000000000 7.501000404358 97 97 97
5.437500000000 4.000000000000 7.487999916077 19 19 19
5.562500000000 3.750000000000 5.800999641418 23 23 23
5.546875000000 3.750000000000 5.925999641418 24 24 24
5.562500000000 3.750000000000 6.047999382019 50 50 50
5.546875000000 3.750000000000 6.172999382019 58 58 58
5.562500000000 3.750000000000 6.296000480652 95 95 95
5.562500000000 3.750000000000 6.421000480652 109 109 109
5.546875000000 3.750000000000 6.550999641418 153 153 153
5.515625000000 3.750000000000 6.685999870300 241 241 241
5.515625000000 3.750000000000 6.814000129700 240 240 240
5.531250000000 3.750000000000 6.938000679016 225 225 225
5.546875000000 3.750000000000 7.064999580383 191 191 191
5.546875000000 3.750000000000 7.192000389099 205 205 205
5.562500000000 3.750000000000 7.317999839783 178 178 178
5.578125000000 3.750000000000 7.443999290466 156 156 156
5.609375000000 3.750000000000 7.567999839783 116 116 116
5.593750000000 3.750000000000 7.704998970032 160 160 160
5.593750000000 3.750000000000 7.838000297546 145 145 145
5.656250000000 3.687500000000 2.515999794006 174 174 174
5.625000000000 3.625000000000 2.637999534607 186 186 186
5.718750000000 3.687500000000 2.776999473572 198 198 198
5.625000000000 3.625000000000 2.883999824524 194 194 194
5.640625000000 3.625000000000 3.008000373840 191 191 191
5.625000000000 3.625000000000 3.127999305725 199 199 199
5.625000000000 3.625000000000 3.251000404358 197 197 197
5.625000000000 3.625000000000 3.370999336243 198 198 198
5.625000000000 3.625000000000 3.492999076843 201 201 201
5.625000000000 3.625000000000 3.613999366760 193 193 193
5.625000000000 3.625000000000 3.734000205994 194 194 194
5.625000000000 3.625000000000 3.855000495911 204 204 204
5.625000000000 3.625000000000 3.974999427795 198 198 198
5.625000000000 3.625000000000 4.095999717712 197 197 197
5.625000000000 3.625000000000 4.216000556946 199 199 199
5.609375000000 3.625000000000 4.335999488831 201 201 201
5.625000000000 3.625000000000 4.456999778748 197 197 197
5.609375000000 3.625000000000 4.577000617981 198 198 198
5.609375000000 3.625000000000 4.697999000549 197 197 197
5.609375000000 3.625000000000 4.817999839783 199 199 199
5.609375000000 3.625000000000 4.939000129700 199 199 199
5.609375000000 3.625000000000 5.060000419617 197 197 197
5.609375000000 3.625000000000 5.181000709534 195 195 195
5.609375000000 3.625000000000 5.303000450134 198 198 198
5.609375000000 3.625000000000 5.424000740051 196 196 196
5.609375000000 3.625000000000 5.546000480652 189 189 189
5.593750000000 3.625000000000 5.668999671936 189 189 189
5.593750000000 3.625000000000 5.792000770569 188 188 188
5.593750000000 3.625000000000 5.914999961853 189 189 189
5.578125000000 3.625000000000 6.040999412537 195 195 195
5.593750000000 3.625000000000 6.164000511169 188 188 188
5.578125000000 3.625000000000 6.289000511169 188 188 188
5.593750000000 3.625000000000 6.411999702454 186 186 186
5.593750000000 3.625000000000 6.539999961853 188 188 188
5.578125000000 3.625000000000 6.667000770569 190 190 190
5.578125000000 3.625000000000 6.796999931335 179 179 179
5.593750000000 3.625000000000 6.919999122620 185 185 185
5.578125000000 3.625000000000 7.050999641418 178 178 178
5.578125000000 3.625000000000 7.182999610901 169 169 169
5.578125000000 3.625000000000 7.313000679016 169 169 169
5.562500000000 3.625000000000 7.449000358582 176 176 176
5.578125000000 3.625000000000 7.574999809265 93 93 93
5.593750000000 3.625000000000 7.703000068665 112 112 112
5.593750000000 3.625000000000 7.838000297546 104 104 104
3.671875000000 10.812500000000 3.101000785828 32 32 32
3.578125000000 10.750000000000 2.924000740051 74 74 74
3.812500000000 10.812500000000 2.956999778748 72 72 72
4.265625000000 10.812500000000 3.022000312805 178 178 178
4.093750000000 10.687500000000 3.155999183655 179 179 179
4.062500000000 10.687500000000 3.307999610901 183 183 183
4.062500000000 10.687500000000 3.463999748230 182 182 182
4.015625000000 10.625000000000 3.617999076843 187 187 187
3.984375000000 10.625000000000 3.773999214172 188 188 188
3.984375000000 10.625000000000 3.929999351501 188 188 188
3.953125000000 10.625000000000 4.086998939514 189 189 189
3.937500000000 10.625000000000 4.244000434875 181 181 181
3.921875000000 10.562500000000 4.401000022888 171 171 171
3.906250000000 10.562500000000 4.558999061584 171 171 171
3.875000000000 10.562500000000 4.717000007629 176 176 176
3.859375000000 10.562500000000 4.876000404358 161 161 161
3.843750000000 10.562500000000 5.035000801086 161 161 161
3.828125000000 10.500000000000 5.196000099182 157 157 157
3.812500000000 10.500000000000 5.355999946594 149 149 149
3.796875000000 10.500000000000 5.516999244690 150 150 150
3.765625000000 10.500000000000 5.679999351501 142 142 142
3.640625000000 10.375000000000 6.508000373840 135 135 135
3.625000000000 10.375000000000 6.676999092102 129 129 129
3.593750000000 10.375000000000 6.848999977112 134 134 134
3.578125000000 10.375000000000 7.018000602722 107 107 107
3.546875000000 10.312500000000 7.192999839783 113 113 113
3.531250000000 10.312500000000 7.365000724792 113 113 113
3.500000000000 10.312500000000 7.542000770569 91 91 91
3.468750000000 10.250000000000 7.723000526428 92 92 92
3.453125000000 10.250000000000 7.901999473572 93 93 93
3.421875000000 10.312500000000 8.081999778748 87 87 87
3.687500000000 10.437500000000 6.341000556946 80 80 80
3.625000000000 10.250000000000 7.012999534607 108 108 108
3.609375000000 10.250000000000 7.181000709534 107 107 107
3.593750000000 10.187500000000 7.355999946594 110 110 110
3.562500000000 10.187500000000 7.529000282288 102 102 102
3.531250000000 10.187500000000 7.707999229431 106 106 106
3.500000000000 10.187500000000 7.884999275208 97 97 97
3.484375000000 10.125000000000 8.067000389099 88 88 88
4.140625000000 10.625000000000 2.686999320984 103 103 103
4.250000000000 10.687500000000 2.860999107361 118 118 118
4.171875000000 10.625000000000 3.008000373840 114 114 114
4.140625000000 10.625000000000 3.161000251770 131 131 131
4.125000000000 10.562500000000 3.314999580383 125 125 125
4.109375000000 10.562500000000 3.470000267029 126 126 126
4.093750000000 10.562500000000 3.624999046326 125 125 125
4.062500000000 10.562500000000 3.779000282288 117 117 117
4.062500000000 10.562500000000 3.935000419617 107 107 107
4.046875000000 10.500000000000 4.089999198914 84 84 84
4.000000000000 10.500000000000 4.245999336243 72 72 72
4.000000000000 10.500000000000 4.401999473572 34 34 34
3.656250000000 10.250000000000 6.838000297546 25 25 25
3.906250000000 9.062500000000 7.463000297546 25 25 25
3.906250000000 8.937500000000 7.133999824524 29 29 29
3.937500000000 8.937500000000 7.456000328064 48 48 48
3.968750000000 8.812500000000 7.123999595642 74 74 74
3.937500000000 8.812500000000 7.289999961853 36 36 36
3.968750000000 8.812500000000 7.446999549866 64 64 64
3.984375000000 8.687500000000 7.117999076843 58 58 58
3.984375000000 8.687500000000 7.282999992371 174 174 174
4.015625000000 8.687500000000 7.436999320984 79 79 79
4.000000000000 8.562500000000 7.112999916077 70 70 70
4.031250000000 8.562500000000 7.273999214172 152 152 152
4.062500000000 8.562500000000 7.431000709534 78 78 78
4.046875000000 8.437500000000 7.106999397278 49 49 49
4.031250000000 8.437500000000 7.272000312805 132 132 132
4.078125000000 8.500000000000 7.424000740051 89 89 89
4.093750000000 8.312500000000 7.099999427795 39 39 39
4.062500000000 8.312500000000 7.265000343323 128 128 128
4.140625000000 8.375000000000 7.414999961853 86 86 86
4.125000000000 8.250000000000 7.092999458313 21 21 21
4.109375000000 8.250000000000 7.258000373840 128 128 128
4.156250000000 8.250000000000 7.411999702454 79 79 79
4.140625000000 8.125000000000 7.254000663757 126 126 126
4.203125000000 8.125000000000 7.404000282288 35 35 35
4.171875000000 8.000000000000 7.245999336243 162 162 162
4.203125000000 8.000000000000 7.400000572205 44 44 44
4.218750000000 7.875000000000 7.240000724792 184 184 184
4.250000000000 7.875000000000 7.394999504089 32 32 32
4.250000000000 7.750000000000 7.233000755310 116 116 116
4.296875000000 7.812500000000 7.384999275208 17 17 17
4.296875000000 7.625000000000 7.224999427795 159 159 159
4.296875000000 7.625000000000 7.383999824524 32 32 32
4.343750000000 7.562500000000 7.216000556946 169 169 169
4.343750000000 7.562500000000 7.376999855042 65 65 65
4.375000000000 7.375000000000 7.210000038147 136 136 136
4.359375000000 7.375000000000 7.370999336243 80 80 80
4.421875000000 7.250000000000 7.202000617981 157 157 157
4.421875000000 7.250000000000 7.359999656677 94 94 94
4.437500000000 7.125000000000 7.197999000549 198 198 198
4.453125000000 7.125000000000 7.353999137878 110 110 110
4.500000000000 7.000000000000 7.188000679016 175 175 175
4.500000000000 7.000000000000 7.345999717712 128 128 128
4.515625000000 6.875000000000 7.182999610901 196 196 196
4.531250000000 6.937500000000 7.341000556946 140 140 140
4.546875000000 6.812500000000 7.176999092102 186 186 186
4.546875000000 6.812500000000 7.335000038147 155 155 155
4.593750000000 6.812500000000 7.480999946594 14 14 14
4.609375000000 6.687500000000 7.168999671936 173 173 173
4.609375000000 6.687500000000 7.325999259949 153 153 153
4.656250000000 6.750000000000 7.470000267029 33 33 33
4.625000000000 6.562500000000 7.162999153137 49 49 49
4.687500000000 6.625000000000 7.464999198914 55 55 55
4.703125000000 6.500000000000 7.460999488831 80 80 80
4.750000000000 6.375000000000 7.450999259949 87 87 87
4.765625000000 6.250000000000 7.445000648499 84 84 84
4.781250000000 6.125000000000 7.440999031067 49 49 49
4.843750000000 6.000000000000 7.431000709534 34 34 34
5.093750000000 5.062500000000 7.535000801086 125 125 125
5.187500000000 5.000000000000 7.505000114441 81 81 81
5.218750000000 4.875000000000 7.499999046326 95 95 95
5.234375000000 4.687500000000 7.492999076843 86 86 86
5.218750000000 4.625000000000 7.502999305725 121 121 121
5.281250000000 4.437500000000 7.490000724792 130 130 130
5.546875000000 3.812500000000 5.980999946594 147 147 147
5.546875000000 3.812500000000 6.981999397278 183 183 183
5.562500000000 3.812500000000 7.123999595642 184 184 184
5.578125000000 3.812500000000 7.556000709534 60 60 60
5.578125000000 3.812500000000 7.706000328064 182 182 182
5.578125000000 3.812500000000 7.855000495911 106 106 106
5.546875000000 3.812500000000 5.417000770569 134 134 134
5.546875000000 3.812500000000 5.557999610901 164 164 164
5.546875000000 3.812500000000 5.697999000549 141 141 141
5.546875000000 3.812500000000 5.839999198914 155 155 155
5.546875000000 3.812500000000 6.122000694275 141 141 141
5.546875000000 3.812500000000 6.836998939514 135 135 135
5.625000000000 3.750000000000 2.626999855042 194 194 194
5.625000000000 3.750000000000 2.769999504089 195 195 195
5.609375000000 3.750000000000 2.908999443054 200 200 200
5.625000000000 3.750000000000 3.050999641418 192 192 192
5.625000000000 3.750000000000 3.192000389099 172 172 172
5.625000000000 3.750000000000 3.331000328064 184 184 184
5.609375000000 3.750000000000 3.470999717712 194 194 194
5.625000000000 3.750000000000 3.610999107361 190 190 190
5.625000000000 3.750000000000 3.749999046326 205 205 205
5.609375000000 3.750000000000 3.888998985291 210 210 210
5.625000000000 3.750000000000 4.027998924255 206 206 206
5.609375000000 3.750000000000 4.165999412537 212 212 212
5.609375000000 3.750000000000 4.304999351501 207 207 207
5.609375000000 3.750000000000 4.442999839783 210 210 210
5.609375000000 3.750000000000 4.581999778748 148 148 148
5.625000000000 3.750000000000 5.275000572205 197 197 197
5.609375000000 3.750000000000 5.414000511169 195 195 195
5.609375000000 3.750000000000 5.553999900818 207 207 207
5.609375000000 3.750000000000 5.693999290466 206 206 206
5.593750000000 3.687500000000 5.834000587463 186 186 186
5.593750000000 3.687500000000 5.973999977112 176 176 176
5.593750000000 3.687500000000 7.119000434875 180 180 180
5.593750000000 3.687500000000 7.265000343323 173 173 173
5.531250000000 3.687500000000 7.422999382019 158 158 158
5.500000000000 3.625000000000 7.581999778748 255 255 255
5.562500000000 3.687500000000 7.716000556946 241 241 241
5.515625000000 3.625000000000 7.876000404358 219 219 219
5.593750000000 3.687500000000 6.398999214172 30 30 30
5.593750000000 3.687500000000 6.539000511169 97 97 97
5.625000000000 3.750000000000 6.966000556946 129 129 129
28.468750000000 15.062500000000 3.783999443054 255 255 255
28.484375000000 15.062500000000 4.122000694275 255 255 255
28.421875000000 15.000000000000 4.293000221252 111 111 111
28.531250000000 15.062500000000 4.970000267029 130 130 130
28.593750000000 15.125000000000 5.484000205994 129 129 129
28.625000000000 15.125000000000 5.828000068665 128 128 128
28.656250000000 15.125000000000 6.176999092102 128 128 128
28.406250000000 15.000000000000 3.450999259949 48 48 48
28.406250000000 15.000000000000 3.619000434875 115 115 115
28.625000000000 15.125000000000 6.001000404358 79 79 79
28.687500000000 15.187500000000 6.355999946594 120 120 120
28.671875000000 15.187500000000 6.526999473572 43 43 43
28.750000000000 15.250000000000 7.067000389099 56 56 56
