12.015625000000 16.312500000000 8.684005737305 122 122 122
12.015625000000 16.312500000000 8.733001708984 118 118 118
12.015625000000 16.312500000000 8.779006958008 117 117 117
12.000000000000 16.312500000000 8.835998535156 116 116 116
12.000000000000 16.312500000000 8.888000488281 115 115 115
12.000000000000 16.312500000000 8.932998657227 113 113 113
12.000000000000 16.312500000000 8.992004394531 108 108 108
11.984375000000 16.296875000000 9.052001953125 114 114 114
11.984375000000 16.296875000000 9.102005004883 112 112 112
11.984375000000 16.296875000000 9.162002563477 114 114 114
11.984375000000 16.296875000000 9.216995239258 112 112 112
11.984375000000 16.296875000000 9.272003173828 106 106 106
11.984375000000 16.296875000000 9.333999633789 107 107 107
11.984375000000 16.296875000000 9.386001586914 105 105 105
11.984375000000 16.296875000000 9.451995849609 109 109 109
11.968750000000 16.296875000000 9.516998291016 105 105 105
11.984375000000 16.296875000000 9.570999145508 105 105 105
11.968750000000 16.296875000000 9.652008056641 102 102 102
11.953125000000 16.296875000000 9.720001220703 135 135 135
11.968750000000 16.296875000000 9.763000488281 122 122 122
11.968750000000 16.296875000000 9.833007812500 155 155 155
12.000000000000 16.296875000000 9.852005004883 155 155 155
12.000000000000 16.296875000000 9.923004150391 114 114 114
11.953125000000 16.296875000000 10.059005737305 96 96 96
11.937500000000 16.296875000000 10.139999389648 104 104 104
11.937500000000 16.296875000000 10.216003417969 96 96 96
11.937500000000 16.296875000000 10.294998168945 104 104 104
11.937500000000 16.296875000000 10.369995117188 100 100 100
11.937500000000 16.296875000000 10.453994750977 95 95 95
11.921875000000 16.296875000000 10.539001464844 97 97 97
11.921875000000 16.296875000000 10.635009765625 123 123 123
11.937500000000 16.296875000000 10.673004150391 142 142 142
11.968750000000 16.296875000000 10.693008422852 152 152 152
12.015625000000 16.296875000000 10.695999145508 160 160 160
12.078125000000 16.296875000000 10.688003540039 158 158 158
12.109375000000 16.296875000000 10.699005126953 154 154 154
12.156250000000 16.312500000000 10.701004028320 151 151 151
12.203125000000 16.312500000000 10.699005126953 147 147 147
12.250000000000 16.312500000000 10.699996948242 147 147 147
12.281250000000 16.312500000000 10.703994750977 146 146 146
12.328125000000 16.312500000000 10.703002929688 142 142 142
12.375000000000 16.312500000000 10.699996948242 137 137 137
12.406250000000 16.312500000000 10.710998535156 150 150 150
12.453125000000 16.312500000000 10.712005615234 150 150 150
12.500000000000 16.328125000000 10.712005615234 154 154 154
12.531250000000 16.328125000000 10.710998535156 156 156 156
12.578125000000 16.328125000000 10.716003417969 161 161 161
12.625000000000 16.328125000000 10.688995361328 151 151 151
12.640625000000 16.328125000000 10.725997924805 156 156 156
12.687500000000 16.328125000000 10.747009277344 142 142 142
12.687500000000 16.328125000000 10.822998046875 160 160 160
12.687500000000 16.328125000000 10.917999267578 163 163 163
12.703125000000 16.328125000000 10.990997314453 168 168 168
14.875000000000 16.453125000000 8.527008056641 134 134 134
14.890625000000 16.453125000000 8.529006958008 91 91 91
14.843750000000 16.437500000000 10.208999633789 85 85 85
12.031250000000 16.640625000000 7.763000488281 138 138 138
12.046875000000 16.625000000000 7.792007446289 148 148 148
12.046875000000 16.625000000000 7.824005126953 141 141 141
12.046875000000 16.625000000000 7.863006591797 163 163 163
12.062500000000 16.640625000000 7.882995605469 166 166 166
12.093750000000 16.640625000000 7.886001586914 138 138 138
12.265625000000 16.640625000000 8.003005981445 48 48 48
12.343750000000 16.640625000000 8.046005249023 46 46 46
11.734375000000 16.609375000000 9.992996215820 127 127 127
11.937500000000 16.625000000000 9.738006591797 111 111 111
11.937500000000 16.625000000000 9.794998168945 125 125 125
11.937500000000 16.625000000000 9.850997924805 153 153 153
11.968750000000 16.625000000000 9.861007690430 146 146 146
12.000000000000 16.625000000000 9.876007080078 21 21 21
12.156250000000 16.625000000000 9.880996704102 114 114 114
12.203125000000 16.625000000000 9.895004272461 141 141 141
12.250000000000 16.625000000000 9.904998779297 136 136 136
12.281250000000 16.625000000000 9.908004760742 134 134 134
12.312500000000 16.640625000000 9.917999267578 127 127 127
12.359375000000 16.640625000000 9.914001464844 123 123 123
12.390625000000 16.640625000000 9.912002563477 119 119 119
12.421875000000 16.640625000000 9.932998657227 111 111 111
12.625000000000 16.640625000000 11.033004760742 132 132 132
12.656250000000 16.640625000000 11.044998168945 123 123 123
14.859375000000 16.765625000000 8.550994873047 104 104 104
14.843750000000 16.765625000000 10.227996826172 95 95 95
15.234375000000 16.796875000000 8.302001953125 92 92 92
14.843750000000 17.078125000000 8.552001953125 119 119 119
14.875000000000 17.093750000000 8.555007934570 86 86 86
14.812500000000 17.078125000000 10.227005004883 149 149 149
14.859375000000 17.078125000000 10.216003417969 110 110 110
15.218750000000 17.109375000000 8.281005859375 166 166 166
16.093750000000 15.765625000000 8.908004760742 40 40 40
16.078125000000 15.734375000000 8.906997680664 146 146 146
16.062500000000 15.734375000000 8.925994873047 113 113 113
16.046875000000 15.734375000000 8.949005126953 95 95 95
16.046875000000 15.734375000000 9.041000366211 110 110 110
15.937500000000 15.656250000000 8.486007690430 152 152 152
15.921875000000 15.640625000000 8.460998535156 157 157 157
15.953125000000 15.671875000000 8.867996215820 129 129 129
15.921875000000 15.671875000000 8.904998779297 162 162 162
15.921875000000 15.656250000000 8.910995483398 152 152 152
15.906250000000 15.640625000000 8.917999267578 103 103 103
15.859375000000 15.625000000000 8.921005249023 124 124 124
15.843750000000 15.609375000000 8.936004638672 78 78 78
15.484375000000 15.703125000000 8.863998413086 88 88 88
15.468750000000 15.703125000000 8.839004516602 149 149 149
15.437500000000 15.671875000000 8.455001831055 203 203 203
15.421875000000 15.656250000000 8.376007080078 186 186 186
15.406250000000 15.656250000000 8.388000488281 109 109 109
15.390625000000 15.671875000000 9.744003295898 150 150 150
15.375000000000 15.671875000000 9.764007568359 60 60 60
15.359375000000 15.609375000000 8.294006347656 201 201 201
15.406250000000 15.687500000000 9.779006958008 142 142 142
15.390625000000 16.000000000000 9.818008422852 83 83 83
15.359375000000 15.984375000000 9.818008422852 58 58 58
15.343750000000 15.921875000000 8.296005249023 223 223 223
15.312500000000 15.921875000000 8.283004760742 206 206 206
15.093750000000 15.812500000000 9.537002563477 38 38 38
15.078125000000 15.796875000000 9.518005371094 131 131 131
15.046875000000 15.796875000000 9.512008666992 153 153 153
15.031250000000 15.781250000000 9.501007080078 136 136 136
15.015625000000 15.765625000000 9.525009155273 63 63 63
14.968750000000 15.734375000000 9.755996704102 135 135 135
14.937500000000 15.718750000000 9.764999389648 174 174 174
14.906250000000 15.703125000000 9.772994995117 135 135 135
15.000000000000 15.734375000000 8.803009033203 148 148 148
14.984375000000 15.734375000000 8.768005371094 160 160 160
14.968750000000 15.718750000000 8.764999389648 158 158 158
14.937500000000 15.703125000000 8.757003784180 124 124 124
15.343750000000 16.296875000000 9.798004150391 80 80 80
15.312500000000 16.281250000000 9.819000244141 71 71 71
15.296875000000 16.234375000000 8.290008544922 200 200 200
15.281250000000 16.234375000000 8.288009643555 246 246 246
14.843750000000 16.000000000000 10.195007324219 88 88 88
15.328125000000 16.609375000000 9.802001953125 39 39 39
15.296875000000 16.593750000000 9.803009033203 98 98 98
15.265625000000 16.531250000000 8.302001953125 225 225 225
15.250000000000 16.515625000000 8.309997558594 101 101 101
14.828125000000 16.328125000000 10.210998535156 92 92 92
14.890625000000 16.296875000000 8.541000366211 87 87 87
15.296875000000 16.921875000000 9.804000854492 93 93 93
15.265625000000 16.859375000000 8.294006347656 234 234 234
15.250000000000 16.843750000000 8.289001464844 252 252 252
14.843750000000 16.640625000000 10.225006103516 88 88 88
14.890625000000 16.625000000000 8.544006347656 68 68 68
15.281250000000 17.218750000000 9.783004760742 90 90 90
15.234375000000 17.140625000000 8.296005249023 249 249 249
15.218750000000 17.140625000000 8.300003051758 124 124 124
14.937500000000 17.015625000000 10.164001464844 90 90 90
14.921875000000 17.000000000000 10.134002685547 133 133 133
14.906250000000 16.984375000000 10.104003906250 141 141 141
14.859375000000 16.968750000000 10.169998168945 121 121 121
15.000000000000 17.015625000000 8.688003540039 159 159 159
14.984375000000 17.000000000000 8.667007446289 178 178 178
14.968750000000 16.984375000000 8.667007446289 185 185 185
14.953125000000 16.984375000000 8.666000366211 162 162 162
14.921875000000 16.968750000000 8.733001708984 161 161 161
14.875000000000 16.937500000000 8.718002319336 93 93 93
14.859375000000 16.937500000000 8.682998657227 103 103 103
14.859375000000 16.921875000000 8.553009033203 112 112 112
10.453125000000 16.125000000000 11.193008422852 114 114 114
10.453125000000 16.125000000000 11.115005493164 133 133 133
10.484375000000 16.125000000000 11.007003784180 119 119 119
10.546875000000 16.093750000000 10.861007690430 106 106 106
10.484375000000 16.125000000000 10.865005493164 124 124 124
10.453125000000 16.156250000000 10.854003906250 129 129 129
10.390625000000 16.171875000000 10.841003417969 77 77 77
11.156250000000 16.062500000000 10.719009399414 82 82 82
11.140625000000 16.078125000000 10.697006225586 114 114 114
11.031250000000 16.140625000000 10.768005371094 130 130 130
10.921875000000 16.187500000000 10.850006103516 135 135 135
10.890625000000 16.203125000000 10.804000854492 92 92 92
10.875000000000 16.218750000000 10.772994995117 64 64 64
12.437500000000 15.734375000000 9.884002685547 134 134 134
12.406250000000 15.750000000000 9.876007080078 179 179 179
12.390625000000 15.765625000000 9.858001708984 181 181 181
12.359375000000 15.781250000000 9.835006713867 184 184 184
12.312500000000 15.796875000000 9.843002319336 188 188 188
12.281250000000 15.828125000000 9.859008789063 179 179 179
11.453125000000 16.171875000000 11.121002197266 142 142 142
11.546875000000 16.156250000000 10.910003662109 136 136 136
11.531250000000 16.156250000000 10.863006591797 149 149 149
11.750000000000 16.078125000000 10.471008300781 173 173 173
12.000000000000 15.953125000000 9.979003906250 138 138 138
12.046875000000 15.937500000000 9.859008789063 165 165 165
12.015625000000 15.953125000000 9.850006103516 160 160 160
12.015625000000 15.968750000000 9.803009033203 135 135 135
12.015625000000 15.968750000000 9.742004394531 139 139 139
11.734375000000 16.109375000000 10.104995727539 87 87 87
11.765625000000 16.093750000000 10.020996093750 143 143 143
11.812500000000 16.109375000000 9.194000244141 32 32 32
11.812500000000 16.109375000000 9.147003173828 56 56 56
11.828125000000 16.125000000000 9.094009399414 73 73 73
11.828125000000 16.125000000000 9.044006347656 73 73 73
12.562500000000 15.796875000000 8.150009155273 151 151 151
12.546875000000 15.796875000000 8.141006469727 172 172 172
12.515625000000 15.812500000000 8.108001708984 185 185 185
12.500000000000 15.828125000000 8.100006103516 185 185 185
12.484375000000 15.828125000000 8.083999633789 186 186 186
12.468750000000 15.843750000000 8.072998046875 166 166 166
12.453125000000 15.859375000000 8.067001342773 151 151 151
12.406250000000 15.875000000000 8.067001342773 170 170 170
12.359375000000 15.906250000000 8.093002319336 165 165 165
11.859375000000 16.140625000000 8.576995849609 146 146 146
11.859375000000 16.140625000000 8.540008544922 150 150 150
11.859375000000 16.140625000000 8.494003295898 146 146 146
11.859375000000 16.156250000000 8.462997436523 144 144 144
11.859375000000 16.156250000000 8.419998168945 145 145 145
11.859375000000 16.140625000000 8.376007080078 148 148 148
11.859375000000 16.156250000000 8.345001220703 151 151 151
11.859375000000 16.156250000000 8.311996459961 149 149 149
11.859375000000 16.156250000000 8.272003173828 148 148 148
11.859375000000 16.171875000000 8.238998413086 150 150 150
11.859375000000 16.171875000000 8.197998046875 152 152 152
12.125000000000 16.046875000000 7.906997680664 163 163 163
12.093750000000 16.062500000000 7.902999877930 166 166 166
12.078125000000 16.062500000000 7.885009765625 156 156 156
12.078125000000 16.062500000000 7.850997924805 157 157 157
12.078125000000 16.078125000000 7.819000244141 157 157 157
12.062500000000 16.078125000000 7.796997070313 165 165 165
11.828125000000 16.203125000000 7.979995727539 153 153 153
11.828125000000 16.203125000000 7.945999145508 150 150 150
11.812500000000 16.203125000000 7.915008544922 154 154 154
11.812500000000 16.203125000000 7.880004882813 152 152 152
11.828125000000 16.203125000000 7.843002319336 152 152 152
11.812500000000 16.203125000000 7.813995361328 156 156 156
11.828125000000 16.203125000000 7.777999877930 163 163 163
11.828125000000 16.218750000000 7.744995117188 161 161 161
11.859375000000 16.187500000000 7.673004150391 155 155 155
11.953125000000 16.156250000000 7.570007324219 113 113 113
11.953125000000 16.156250000000 7.539001464844 106 106 106
11.921875000000 16.171875000000 7.529998779297 132 132 132
11.843750000000 16.203125000000 7.555007934570 160 160 160
11.828125000000 16.234375000000 7.555999755859 164 164 164
11.828125000000 16.234375000000 7.520996093750 164 164 164
11.828125000000 16.234375000000 7.488006591797 169 169 169
11.828125000000 16.234375000000 7.460998535156 162 162 162
11.828125000000 16.234375000000 7.425994873047 162 162 162
11.828125000000 16.234375000000 7.399002075195 163 163 163
11.828125000000 16.234375000000 7.365997314453 163 163 163
11.843750000000 16.234375000000 7.328002929688 164 164 164
11.843750000000 16.234375000000 7.296005249023 160 160 160
11.843750000000 16.234375000000 7.257003784180 162 162 162
11.843750000000 16.234375000000 7.225997924805 163 163 163
11.859375000000 16.218750000000 7.180999755859 164 164 164
11.875000000000 16.218750000000 7.145996093750 165 165 165
11.890625000000 16.203125000000 7.106002807617 162 162 162
11.906250000000 16.203125000000 7.068008422852 167 167 167
11.937500000000 16.203125000000 7.027999877930 167 167 167
11.953125000000 16.203125000000 6.990997314453 162 162 162
11.968750000000 16.203125000000 6.953002929688 170 170 170
12.015625000000 16.171875000000 6.895996093750 157 157 157
12.031250000000 16.171875000000 6.865997314453 158 158 158
12.046875000000 16.156250000000 6.835006713867 159 159 159
12.031250000000 16.171875000000 6.809005737305 158 158 158
12.031250000000 16.171875000000 6.783996582031 154 154 154
12.046875000000 16.171875000000 6.750000000000 146 146 146
12.031250000000 16.171875000000 6.738006591797 157 157 157
12.031250000000 16.171875000000 6.712997436523 160 160 160
12.687500000000 15.828125000000 11.057006835938 137 137 137
12.671875000000 15.843750000000 11.042007446289 124 124 124
13.000000000000 15.750000000000 9.837997436523 120 120 120
12.953125000000 15.765625000000 9.837005615234 164 164 164
12.937500000000 15.781250000000 9.835006713867 149 149 149
12.906250000000 15.796875000000 9.841003417969 76 76 76
12.140625000000 16.140625000000 10.707000732422 51 51 51
12.109375000000 16.171875000000 10.703002929688 136 136 136
12.046875000000 16.203125000000 10.712005615234 164 164 164
12.015625000000 16.218750000000 10.716003417969 166 166 166
11.968750000000 16.234375000000 10.712005615234 166 166 166
11.953125000000 16.250000000000 10.669998168945 150 150 150
11.953125000000 16.265625000000 10.606002807617 104 104 104
11.953125000000 16.265625000000 10.531005859375 99 99 99
11.953125000000 16.265625000000 10.464996337891 101 101 101
11.953125000000 16.265625000000 10.395996093750 104 104 104
11.953125000000 16.265625000000 10.332000732422 103 103 103
13.062500000000 15.796875000000 8.501007080078 209 209 209
13.078125000000 15.796875000000 8.432006835938 162 162 162
13.062500000000 15.796875000000 8.419006347656 180 180 180
13.046875000000 15.812500000000 8.410995483398 169 169 169
13.015625000000 15.828125000000 8.417007446289 159 159 159
12.984375000000 15.828125000000 8.400009155273 31 31 31
12.000000000000 16.281250000000 9.850006103516 161 161 161
12.000000000000 16.281250000000 9.792999267578 144 144 144
11.968750000000 16.296875000000 9.755004882813 150 150 150
11.968750000000 16.296875000000 9.705001831055 54 54 54
11.828125000000 16.375000000000 9.860000610352 142 142 142
12.109375000000 16.359375000000 7.906997680664 161 161 161
12.078125000000 16.375000000000 7.906005859375 167 167 167
12.046875000000 16.390625000000 7.885009765625 152 152 152
12.046875000000 16.390625000000 7.850997924805 150 150 150
12.046875000000 16.390625000000 7.818008422852 153 153 153
12.062500000000 16.390625000000 7.779006958008 150 150 150
12.000000000000 16.265625000000 9.891998291016 152 152 152
13.625000000000 15.718750000000 9.811996459961 80 80 80
13.609375000000 15.734375000000 9.809997558594 153 153 153
13.578125000000 15.734375000000 9.798995971680 169 169 169
13.546875000000 15.765625000000 9.809997558594 139 139 139
13.515625000000 15.781250000000 9.815002441406 23 23 23
12.703125000000 16.140625000000 11.083999633789 61 61 61
13.718750000000 15.750000000000 8.591003417969 119 119 119
13.703125000000 15.750000000000 8.570007324219 157 157 157
13.671875000000 15.765625000000 8.555007934570 166 166 166
13.656250000000 15.781250000000 8.559997558594 165 165 165
13.625000000000 15.796875000000 8.604995727539 208 208 208
12.640625000000 16.203125000000 10.727005004883 121 121 121
12.578125000000 16.218750000000 10.733001708984 163 163 163
12.562500000000 16.234375000000 10.723007202148 165 165 165
12.515625000000 16.265625000000 10.727996826172 161 161 161
12.484375000000 16.265625000000 10.729995727539 163 163 163
12.468750000000 16.296875000000 10.703994750977 133 133 133
12.453125000000 16.312500000000 10.682006835938 63 63 63
12.046875000000 16.578125000000 9.921005249023 29 29 29
12.031250000000 16.578125000000 9.897994995117 87 87 87
11.984375000000 16.593750000000 9.873001098633 147 147 147
11.984375000000 16.609375000000 9.824005126953 157 157 157
11.968750000000 16.609375000000 9.789001464844 160 160 160
11.953125000000 16.625000000000 9.777999877930 137 137 137
12.203125000000 16.609375000000 8.000000000000 92 92 92
12.171875000000 16.625000000000 7.982009887695 138 138 138
12.171875000000 16.640625000000 7.962005615234 160 160 160
12.156250000000 16.640625000000 7.938995361328 173 173 173
12.140625000000 16.640625000000 7.917007446289 171 171 171
12.140625000000 16.640625000000 7.887008666992 78 78 78
12.640625000000 16.156250000000 11.104003906250 131 131 131
14.250000000000 15.687500000000 9.790008544922 50 50 50
14.218750000000 15.703125000000 9.777999877930 153 153 153
14.203125000000 15.703125000000 9.772994995117 173 173 173
14.171875000000 15.734375000000 9.777999877930 158 158 158
14.140625000000 15.734375000000 9.792007446289 87 87 87
14.343750000000 15.703125000000 8.673995971680 50 50 50
14.328125000000 15.703125000000 8.663009643555 136 136 136
14.328125000000 15.718750000000 8.654998779297 166 166 166
14.296875000000 15.734375000000 8.656005859375 170 170 170
14.265625000000 15.734375000000 8.656997680664 166 166 166
14.234375000000 15.765625000000 8.725006103516 171 171 171
14.156250000000 15.796875000000 8.949996948242 163 163 163
14.125000000000 15.812500000000 8.994995117188 106 106 106
12.671875000000 16.453125000000 11.061996459961 147 147 147
12.640625000000 16.468750000000 11.055999755859 97 97 97
12.546875000000 16.593750000000 9.977005004883 32 32 32
12.546875000000 16.609375000000 9.945999145508 131 131 131
12.515625000000 16.625000000000 9.938995361328 162 162 162
12.468750000000 16.640625000000 9.932006835938 177 177 177
12.437500000000 16.656250000000 9.934005737305 169 169 169
12.437500000000 16.671875000000 9.916000366211 148 148 148
12.390625000000 16.687500000000 9.910003662109 68 68 68
12.609375000000 16.671875000000 8.358001708984 28 28 28
12.609375000000 16.671875000000 8.330001831055 123 123 123
12.593750000000 16.687500000000 8.307998657227 162 162 162
12.578125000000 16.687500000000 8.292007446289 175 175 175
12.578125000000 16.703125000000 8.270996093750 176 176 176
12.546875000000 16.718750000000 8.257995605469 158 158 158
12.531250000000 16.734375000000 8.244995117188 95 95 95
14.968750000000 15.671875000000 8.779998779297 141 141 141
14.953125000000 15.671875000000 8.746002197266 145 145 145
14.921875000000 15.687500000000 8.736999511719 169 169 169
14.906250000000 15.703125000000 8.742996215820 170 170 170
14.890625000000 15.718750000000 8.697006225586 189 189 189
14.890625000000 15.734375000000 8.537002563477 161 161 161
14.750000000000 15.734375000000 9.763000488281 63 63 63
14.765625000000 15.750000000000 9.337005615234 69 69 69
14.750000000000 15.765625000000 9.337997436523 140 140 140
14.734375000000 15.765625000000 9.318008422852 160 160 160
14.687500000000 15.781250000000 9.313995361328 157 157 157
14.687500000000 15.781250000000 9.313003540039 119 119 119
12.656250000000 16.765625000000 11.059005737305 185 185 185
13.015625000000 16.656250000000 9.990005493164 51 51 51
12.984375000000 16.671875000000 9.975006103516 148 148 148
12.953125000000 16.687500000000 9.979003906250 152 152 152
12.921875000000 16.703125000000 9.979995727539 60 60 60
13.062500000000 16.718750000000 8.710006713867 46 46 46
13.046875000000 16.718750000000 8.691009521484 79 79 79
13.031250000000 16.734375000000 8.673004150391 141 141 141
13.000000000000 16.750000000000 8.654006958008 164 164 164
13.000000000000 16.765625000000 8.637008666992 155 155 155
12.984375000000 16.765625000000 8.621002197266 103 103 103
14.875000000000 15.921875000000 10.203994750977 84 84 84
14.828125000000 15.953125000000 10.203994750977 65 65 65
14.906250000000 16.031250000000 8.520996093750 91 91 91
14.890625000000 16.031250000000 8.518005371094 142 142 142
13.468750000000 16.703125000000 10.018997192383 90 90 90
13.453125000000 16.718750000000 10.011001586914 163 163 163
13.421875000000 16.734375000000 10.005004882813 154 154 154
13.390625000000 16.734375000000 10.016998291016 39 39 39
13.453125000000 16.765625000000 9.012008666992 106 106 106
13.437500000000 16.796875000000 9.003005981445 158 158 158
13.421875000000 16.796875000000 8.986999511719 166 166 166
13.406250000000 16.796875000000 8.964004516602 134 134 134
13.390625000000 16.828125000000 8.960006713867 39 39 39
13.484375000000 16.781250000000 8.686004638672 80 80 80
13.468750000000 16.796875000000 8.680007934570 156 156 156
13.453125000000 16.812500000000 8.677001953125 170 170 170
13.421875000000 16.828125000000 8.671997070313 123 123 123
14.875000000000 16.234375000000 10.205001831055 39 39 39
14.843750000000 16.250000000000 10.192001342773 113 113 113
14.890625000000 16.328125000000 8.529998779297 56 56 56
14.875000000000 16.343750000000 8.537002563477 138 138 138
13.937500000000 16.734375000000 10.061004638672 111 111 111
13.921875000000 16.765625000000 10.046997070313 175 175 175
13.906250000000 16.765625000000 10.046997070313 148 148 148
13.890625000000 16.828125000000 9.367996215820 71 71 71
13.890625000000 16.828125000000 9.335006713867 146 146 146
13.875000000000 16.843750000000 9.322006225586 163 163 163
13.828125000000 16.859375000000 9.307006835938 144 144 144
13.812500000000 16.875000000000 9.307006835938 60 60 60
13.953125000000 16.828125000000 8.680999755859 114 114 114
13.937500000000 16.843750000000 8.667999267578 169 169 169
13.921875000000 16.859375000000 8.666000366211 172 172 172
13.890625000000 16.875000000000 8.679000854492 126 126 126
14.843750000000 16.546875000000 10.223999023438 101 101 101
14.875000000000 16.656250000000 8.537002563477 124 124 124
14.437500000000 16.796875000000 10.119995117188 30 30 30
14.421875000000 16.796875000000 10.100006103516 164 164 164
14.390625000000 16.828125000000 10.089004516602 180 180 180
14.359375000000 16.828125000000 10.094009399414 105 105 105
14.359375000000 16.859375000000 9.697006225586 82 82 82
14.328125000000 16.890625000000 9.669998168945 157 157 157
14.312500000000 16.890625000000 9.658996582031 160 160 160
14.281250000000 16.906250000000 9.651000976563 112 112 112
14.453125000000 16.875000000000 8.708999633789 33 33 33
14.437500000000 16.890625000000 8.680007934570 152 152 152
14.406250000000 16.906250000000 8.667999267578 189 189 189
14.390625000000 16.921875000000 8.667999267578 177 177 177
14.375000000000 16.921875000000 8.669006347656 106 106 106
14.890625000000 16.859375000000 10.126998901367 157 157 157
14.875000000000 16.875000000000 10.085998535156 170 170 170
14.843750000000 16.890625000000 10.138000488281 182 182 182
14.906250000000 16.937500000000 8.667007446289 153 153 153
14.890625000000 16.953125000000 8.639999389648 168 168 168
14.890625000000 16.968750000000 8.569000244141 177 177 177
14.875000000000 16.968750000000 8.561004638672 185 185 185
14.843750000000 16.984375000000 8.611999511719 148 148 148
14.812500000000 16.984375000000 8.694000244141 136 136 136
15.203125000000 17.265625000000 9.602005004883 73 73 73
15.187500000000 17.203125000000 8.098999023438 252 252 252
15.171875000000 17.203125000000 8.122009277344 151 151 151
14.906250000000 17.078125000000 9.992996215820 71 71 71
14.875000000000 17.062500000000 9.958999633789 122 122 122
14.843750000000 17.046875000000 9.938003540039 142 142 142
14.828125000000 17.031250000000 9.932998657227 134 134 134
14.953125000000 17.062500000000 8.553009033203 187 187 187
14.937500000000 17.062500000000 8.488006591797 159 159 159
14.921875000000 17.046875000000 8.492996215820 189 189 189
14.906250000000 17.031250000000 8.483001708984 171 171 171
14.875000000000 17.015625000000 8.524002075195 141 141 141
14.828125000000 16.984375000000 8.524002075195 127 127 127
14.828125000000 16.984375000000 8.363006591797 99 99 99
15.250000000000 16.937500000000 9.617004394531 78 78 78
15.234375000000 16.921875000000 9.604995727539 60 60 60
15.218750000000 16.890625000000 8.104995727539 38 38 38
15.203125000000 16.875000000000 8.115005493164 239 239 239
15.187500000000 16.859375000000 8.104003906250 42 42 42
14.796875000000 16.656250000000 10.035003662109 96 96 96
15.281250000000 16.609375000000 9.623001098633 88 88 88
15.234375000000 16.546875000000 8.098007202148 237 237 237
15.218750000000 16.531250000000 8.100006103516 222 222 222
14.796875000000 16.296875000000 10.018005371094 83 83 83
15.312500000000 16.281250000000 9.639999389648 68 68 68
15.296875000000 16.265625000000 9.637008666992 84 84 84
15.281250000000 16.218750000000 8.100006103516 207 207 207
15.265625000000 16.203125000000 8.104003906250 216 216 216
14.796875000000 15.968750000000 10.012008666992 89 89 89
14.781250000000 15.921875000000 9.216995239258 82 82 82
14.765625000000 15.921875000000 9.184997558594 136 136 136
14.734375000000 15.906250000000 9.192001342773 134 134 134
15.343750000000 15.937500000000 9.628997802734 171 171 171
15.312500000000 15.921875000000 9.570007324219 136 136 136
15.296875000000 15.906250000000 9.475997924805 120 120 120
15.265625000000 15.906250000000 9.464004516602 142 142 142
15.296875000000 15.875000000000 8.097000122070 189 189 189
15.281250000000 15.859375000000 8.167007446289 133 133 133
15.203125000000 15.859375000000 9.566009521484 37 37 37
15.218750000000 15.843750000000 8.678009033203 156 156 156
15.203125000000 15.828125000000 8.619003295898 158 158 158
15.171875000000 15.812500000000 8.615997314453 164 164 164
15.171875000000 15.812500000000 8.369995117188 155 155 155
15.171875000000 15.796875000000 8.227996826172 73 73 73
15.687500000000 15.781250000000 8.240005493164 62 62 62
15.671875000000 15.765625000000 8.276000976563 134 134 134
15.671875000000 15.796875000000 8.583999633789 153 153 153
15.671875000000 15.781250000000 8.686004638672 150 150 150
15.640625000000 15.765625000000 8.701995849609 77 77 77
15.343750000000 15.593750000000 9.626007080078 91 91 91
16.218750000000 15.781250000000 8.764007568359 109 109 109
16.203125000000 15.765625000000 8.755996704102 158 158 158
16.171875000000 15.765625000000 8.760009765625 153 153 153
16.156250000000 15.750000000000 8.757003784180 89 89 89
13.000000000000 16.906250000000 8.518997192383 54 54 54
13.015625000000 16.906250000000 8.524002075195 69 69 69
13.062500000000 16.906250000000 8.492004394531 133 133 133
13.078125000000 16.906250000000 8.494003295898 152 152 152
13.140625000000 16.906250000000 8.471008300781 162 162 162
13.156250000000 16.921875000000 8.475997924805 150 150 150
13.187500000000 16.921875000000 8.477996826172 134 134 134
13.218750000000 16.906250000000 8.482009887695 142 142 142
13.250000000000 16.921875000000 8.479003906250 143 143 143
13.265625000000 16.921875000000 8.477996826172 143 143 143
13.296875000000 16.921875000000 8.481002807617 149 149 149
13.328125000000 16.921875000000 8.485000610352 161 161 161
13.359375000000 16.921875000000 8.477005004883 165 165 165
13.375000000000 16.921875000000 8.477996826172 164 164 164
13.406250000000 16.921875000000 8.486007690430 161 161 161
13.437500000000 16.921875000000 8.477005004883 155 155 155
13.468750000000 16.921875000000 8.475006103516 153 153 153
13.484375000000 16.921875000000 8.482009887695 155 155 155
13.515625000000 16.921875000000 8.490997314453 161 161 161
13.546875000000 16.921875000000 8.475997924805 153 153 153
13.578125000000 16.921875000000 8.492004394531 151 151 151
13.609375000000 16.921875000000 8.488006591797 142 142 142
13.625000000000 16.921875000000 8.492996215820 134 134 134
13.640625000000 16.921875000000 8.501998901367 132 132 132
13.671875000000 16.921875000000 8.509002685547 126 126 126
13.687500000000 16.921875000000 8.520004272461 117 117 117
13.718750000000 16.937500000000 8.535995483398 101 101 101
13.734375000000 16.937500000000 8.546005249023 93 93 93
13.750000000000 16.937500000000 8.581008911133 87 87 87
13.687500000000 16.921875000000 9.885009765625 28 28 28
13.718750000000 16.921875000000 9.865997314453 50 50 50
13.750000000000 16.921875000000 9.875000000000 67 67 67
13.765625000000 16.921875000000 9.865997314453 82 82 82
13.828125000000 16.921875000000 9.861007690430 95 95 95
13.859375000000 16.921875000000 9.857009887695 108 108 108
13.875000000000 16.921875000000 9.869003295898 131 131 131
13.906250000000 16.921875000000 9.871002197266 138 138 138
13.953125000000 16.921875000000 9.869003295898 148 148 148
13.984375000000 16.921875000000 9.871002197266 157 157 157
14.015625000000 16.921875000000 9.876007080078 164 164 164
14.031250000000 16.921875000000 9.885009765625 165 165 165
14.062500000000 16.921875000000 9.885009765625 165 165 165
14.093750000000 16.921875000000 9.885009765625 167 167 167
14.125000000000 16.921875000000 9.880996704102 163 163 163
14.156250000000 16.921875000000 9.880004882813 158 158 158
14.203125000000 16.921875000000 9.900009155273 153 153 153
14.234375000000 16.921875000000 9.895996093750 144 144 144
14.265625000000 16.921875000000 9.899002075195 135 135 135
14.296875000000 16.937500000000 9.901000976563 124 124 124
14.328125000000 16.921875000000 9.904998779297 102 102 102
14.359375000000 16.921875000000 9.915008544922 85 85 85
14.390625000000 16.937500000000 9.921997070313 67 67 67
14.421875000000 16.937500000000 9.930999755859 42 42 42
14.812500000000 16.968750000000 8.367996215820 112 112 112
14.843750000000 16.968750000000 8.359008789063 106 106 106
14.781250000000 16.937500000000 10.031997680664 86 86 86
14.812500000000 16.937500000000 9.958999633789 84 84 84
12.000000000000 16.562500000000 7.585998535156 148 148 148
12.000000000000 16.562500000000 7.617004394531 143 143 143
12.000000000000 16.546875000000 7.651000976563 139 139 139
12.000000000000 16.546875000000 7.691009521484 180 180 180
12.015625000000 16.562500000000 7.699005126953 157 157 157
12.046875000000 16.546875000000 7.708007812500 110 110 110
11.656250000000 16.500000000000 9.803009033203 170 170 170
11.703125000000 16.500000000000 9.794006347656 108 108 108
11.906250000000 16.531250000000 9.548004150391 105 105 105
11.906250000000 16.515625000000 9.602005004883 122 122 122
11.906250000000 16.515625000000 9.669998168945 154 154 154
11.937500000000 16.515625000000 9.682006835938 140 140 140
11.765625000000 16.515625000000 10.035995483398 60 60 60
11.328125000000 16.468750000000 10.970001220703 140 140 140
11.359375000000 16.484375000000 11.007995605469 65 65 65
11.718750000000 16.500000000000 10.576004028320 96 96 96
11.718750000000 16.500000000000 10.651000976563 74 74 74
11.875000000000 16.500000000000 10.507003784180 36 36 36
11.890625000000 16.515625000000 10.565002441406 20 20 20
12.593750000000 16.515625000000 10.848007202148 121 121 121
12.609375000000 16.515625000000 10.882003784180 71 71 71
14.812500000000 16.625000000000 8.347000122070 103 103 103
14.828125000000 16.609375000000 8.344009399414 127 127 127
14.796875000000 16.609375000000 10.022994995117 93 93 93
11.984375000000 16.218750000000 7.585006713867 42 42 42
12.015625000000 16.218750000000 7.593002319336 152 152 152
12.015625000000 16.218750000000 7.626007080078 147 147 147
12.015625000000 16.218750000000 7.667999267578 152 152 152
12.015625000000 16.203125000000 7.695007324219 186 186 186
12.046875000000 16.218750000000 7.705001831055 153 153 153
12.062500000000 16.218750000000 7.721008300781 69 69 69
10.343750000000 16.109375000000 10.958999633789 117 117 117
10.375000000000 16.109375000000 11.000000000000 20 20 20
11.671875000000 16.156250000000 9.818008422852 168 168 168
11.703125000000 16.156250000000 9.830001831055 91 91 91
11.937500000000 16.187500000000 9.546997070313 106 106 106
11.937500000000 16.171875000000 9.600006103516 109 109 109
11.937500000000 16.171875000000 9.660995483398 159 159 159
11.984375000000 16.187500000000 9.669998168945 139 139 139
11.328125000000 16.140625000000 10.966003417969 45 45 45
11.359375000000 16.140625000000 10.975006103516 123 123 123
12.578125000000 16.171875000000 10.850997924805 57 57 57
12.625000000000 16.187500000000 10.860000610352 154 154 154
14.812500000000 16.281250000000 8.333999633789 82 82 82
14.843750000000 16.281250000000 8.333999633789 121 121 121
14.781250000000 16.265625000000 10.003997802734 52 52 52
14.812500000000 16.265625000000 10.022994995117 62 62 62
13.343750000000 15.890625000000 8.347000122070 32 32 32
13.484375000000 15.890625000000 8.341003417969 23 23 23
13.500000000000 15.890625000000 8.352996826172 55 55 55
13.531250000000 15.890625000000 8.363006591797 67 67 67
13.546875000000 15.890625000000 8.358001708984 86 86 86
13.578125000000 15.906250000000 8.350997924805 99 99 99
13.609375000000 15.906250000000 8.360000610352 110 110 110
13.609375000000 15.906250000000 8.400009155273 174 174 174
13.656250000000 15.890625000000 8.382003784180 137 137 137
13.687500000000 15.890625000000 8.376007080078 146 146 146
13.703125000000 15.906250000000 8.393997192383 148 148 148
13.734375000000 15.906250000000 8.384002685547 154 154 154
13.750000000000 15.921875000000 8.388000488281 155 155 155
13.781250000000 15.906250000000 8.389007568359 159 159 159
13.796875000000 15.921875000000 8.399002075195 162 162 162
13.828125000000 15.921875000000 8.401000976563 162 162 162
13.843750000000 15.906250000000 8.404998779297 161 161 161
13.875000000000 15.921875000000 8.404006958008 163 163 163
13.906250000000 15.921875000000 8.406005859375 161 161 161
13.921875000000 15.921875000000 8.413009643555 162 162 162
13.937500000000 15.921875000000 8.416000366211 158 158 158
13.968750000000 15.921875000000 8.423004150391 159 159 159
13.984375000000 15.921875000000 8.430999755859 158 158 158
14.015625000000 15.921875000000 8.427001953125 157 157 157
14.015625000000 15.921875000000 8.441009521484 155 155 155
14.062500000000 15.921875000000 8.449996948242 153 153 153
14.078125000000 15.921875000000 8.449996948242 151 151 151
14.093750000000 15.921875000000 8.464004516602 156 156 156
14.125000000000 15.921875000000 8.479995727539 165 165 165
14.140625000000 15.921875000000 8.503005981445 176 176 176
14.171875000000 15.921875000000 8.473007202148 114 114 114
14.187500000000 15.921875000000 8.484008789063 99 99 99
13.921875000000 15.906250000000 9.654998779297 137 137 137
13.953125000000 15.906250000000 9.651000976563 139 139 139
13.984375000000 15.890625000000 9.641998291016 143 143 143
14.015625000000 15.890625000000 9.611999511719 150 150 150
14.046875000000 15.890625000000 9.597000122070 151 151 151
14.078125000000 15.906250000000 9.583999633789 158 158 158
14.109375000000 15.906250000000 9.581008911133 154 154 154
14.140625000000 15.906250000000 9.581008911133 155 155 155
14.171875000000 15.906250000000 9.572006225586 153 153 153
14.203125000000 15.906250000000 9.554000854492 144 144 144
14.234375000000 15.906250000000 9.594009399414 127 127 127
14.359375000000 15.921875000000 9.248001098633 140 140 140
14.406250000000 15.921875000000 9.179000854492 139 139 139
14.437500000000 15.921875000000 9.150009155273 133 133 133
14.468750000000 15.921875000000 9.132003784180 120 120 120
14.500000000000 15.921875000000 9.119003295898 116 116 116
14.531250000000 15.921875000000 9.106002807617 106 106 106
14.546875000000 15.921875000000 9.108001708984 105 105 105
14.578125000000 15.921875000000 9.110000610352 98 98 98
14.609375000000 15.921875000000 9.113998413086 99 99 99
14.625000000000 15.921875000000 9.109008789063 102 102 102
14.656250000000 15.921875000000 9.122009277344 105 105 105
14.671875000000 15.921875000000 9.135009765625 112 112 112
14.687500000000 15.921875000000 9.163009643555 121 121 121
14.734375000000 15.921875000000 9.169998168945 113 113 113
14.828125000000 15.937500000000 8.371002197266 165 165 165
14.781250000000 15.921875000000 9.197006225586 124 124 124
14.812500000000 15.921875000000 9.203002929688 129 129 129
14.828125000000 15.921875000000 9.225006103516 135 135 135
14.859375000000 15.921875000000 9.240005493164 143 143 143
14.890625000000 15.921875000000 9.242996215820 147 147 147
14.906250000000 15.921875000000 9.266998291016 147 147 147
14.937500000000 15.921875000000 9.279998779297 151 151 151
14.953125000000 15.921875000000 9.298004150391 152 152 152
14.984375000000 15.921875000000 9.307998657227 150 150 150
15.015625000000 15.921875000000 9.320999145508 154 154 154
15.046875000000 15.921875000000 9.341003417969 153 153 153
15.062500000000 15.937500000000 9.358001708984 153 153 153
15.109375000000 15.921875000000 9.356002807617 152 152 152
15.140625000000 15.921875000000 9.375000000000 152 152 152
15.140625000000 15.937500000000 9.400009155273 153 153 153
15.187500000000 15.937500000000 9.417999267578 152 152 152
15.218750000000 15.921875000000 9.419998168945 149 149 149
15.250000000000 15.937500000000 9.434997558594 145 145 145
13.859375000000 15.890625000000 9.654006958008 124 124 124
13.890625000000 15.890625000000 9.654998779297 130 130 130
15.062500000000 17.000000000000 8.488998413086 74 74 74
15.046875000000 17.015625000000 8.479003906250 164 164 164
15.031250000000 17.015625000000 8.475006103516 198 198 198
15.000000000000 17.031250000000 8.486007690430 177 177 177
14.984375000000 17.031250000000 8.490997314453 128 128 128
14.906250000000 16.984375000000 9.956008911133 115 115 115
14.875000000000 17.000000000000 9.945999145508 158 158 158
14.843750000000 17.015625000000 9.923995971680 135 135 135
14.828125000000 17.031250000000 9.934997558594 120 120 120
14.796875000000 17.046875000000 10.033004760742 180 180 180
14.828125000000 17.140625000000 8.374008178711 118 118 118
14.812500000000 16.703125000000 10.035003662109 50 50 50
14.796875000000 16.703125000000 10.033004760742 107 107 107
14.843750000000 16.781250000000 8.356002807617 107 107 107
14.828125000000 16.796875000000 8.360000610352 141 141 141
14.500000000000 16.859375000000 9.929000854492 38 38 38
14.468750000000 16.875000000000 9.930999755859 155 155 155
14.453125000000 16.890625000000 9.908004760742 181 181 181
14.453125000000 16.890625000000 9.919006347656 124 124 124
14.406250000000 16.937500000000 9.581008911133 107 107 107
14.390625000000 16.953125000000 9.565002441406 161 161 161
14.359375000000 16.968750000000 9.555007934570 159 159 159
14.328125000000 16.984375000000 9.608001708984 101 101 101
14.484375000000 16.953125000000 8.486999511719 156 156 156
14.468750000000 16.968750000000 8.475006103516 191 191 191
14.453125000000 16.984375000000 8.488006591797 183 183 183
14.421875000000 16.984375000000 8.500000000000 125 125 125
14.812500000000 16.359375000000 10.014007568359 91 91 91
14.843750000000 16.453125000000 8.347000122070 119 119 119
14.828125000000 16.453125000000 8.348007202148 118 118 118
13.953125000000 16.796875000000 9.902999877930 27 27 27
13.937500000000 16.812500000000 9.869003295898 154 154 154
13.921875000000 16.828125000000 9.867004394531 180 180 180
13.890625000000 16.843750000000 9.863998413086 124 124 124
13.890625000000 16.890625000000 9.197998046875 107 107 107
13.859375000000 16.906250000000 9.186004638672 157 157 157
13.843750000000 16.906250000000 9.167999267578 164 164 164
13.828125000000 16.921875000000 9.151000976563 130 130 130
13.937500000000 16.890625000000 8.492004394531 116 116 116
13.921875000000 16.906250000000 8.486007690430 168 168 168
13.906250000000 16.921875000000 8.492004394531 177 177 177
13.890625000000 16.937500000000 8.482009887695 139 139 139
14.796875000000 16.015625000000 10.011001586914 113 113 113
14.859375000000 16.109375000000 8.322006225586 110 110 110
13.375000000000 16.765625000000 9.832000732422 135 135 135
13.359375000000 16.781250000000 9.828002929688 169 169 169
13.328125000000 16.796875000000 9.826004028320 123 123 123
13.359375000000 16.843750000000 8.796997070313 107 107 107
13.343750000000 16.843750000000 8.768997192383 158 158 158
13.328125000000 16.859375000000 8.760009765625 165 165 165
13.312500000000 16.859375000000 8.751998901367 146 146 146
13.281250000000 16.875000000000 8.729995727539 74 74 74
13.375000000000 16.859375000000 8.503005981445 101 101 101
13.359375000000 16.859375000000 8.492004394531 161 161 161
13.343750000000 16.859375000000 8.485000610352 162 162 162
13.296875000000 16.890625000000 8.488006591797 102 102 102
14.812500000000 15.671875000000 10.003005981445 80 80 80
14.796875000000 15.671875000000 9.998001098633 86 86 86
14.843750000000 15.765625000000 8.313995361328 117 117 117
14.750000000000 15.796875000000 8.546997070313 82 82 82
14.734375000000 15.796875000000 8.550994873047 148 148 148
14.718750000000 15.796875000000 8.537002563477 170 170 170
14.703125000000 15.812500000000 8.531005859375 174 174 174
14.687500000000 15.828125000000 8.550003051758 165 165 165
14.671875000000 15.828125000000 8.544006347656 121 121 121
14.625000000000 15.843750000000 8.723999023438 95 95 95
14.562500000000 15.859375000000 9.070007324219 144 144 144
14.546875000000 15.875000000000 9.054000854492 168 168 168
14.515625000000 15.890625000000 9.053009033203 168 168 168
14.500000000000 15.890625000000 9.042007446289 143 143 143
14.468750000000 15.906250000000 9.041000366211 43 43 43
12.593750000000 16.765625000000 10.874008178711 179 179 179
12.796875000000 16.718750000000 9.785003662109 120 120 120
12.781250000000 16.734375000000 9.775009155273 157 157 157
12.750000000000 16.734375000000 9.768997192383 117 117 117
12.843750000000 16.781250000000 8.380996704102 93 93 93
12.828125000000 16.781250000000 8.361999511719 149 149 149
12.812500000000 16.796875000000 8.341995239258 164 164 164
12.796875000000 16.796875000000 8.328994750977 155 155 155
12.781250000000 16.812500000000 8.318008422852 110 110 110
13.968750000000 15.796875000000 9.624008178711 28 28 28
13.953125000000 15.812500000000 9.604003906250 124 124 124
13.906250000000 15.828125000000 9.602005004883 171 171 171
13.890625000000 15.828125000000 9.602996826172 171 171 171
13.859375000000 15.859375000000 9.607009887695 120 120 120
14.046875000000 15.812500000000 8.444000244141 62 62 62
14.031250000000 15.828125000000 8.438995361328 136 136 136
14.015625000000 15.843750000000 8.425003051758 163 163 163
13.984375000000 15.843750000000 8.430999755859 171 171 171
13.984375000000 15.859375000000 8.423995971680 164 164 164
13.953125000000 15.875000000000 8.460006713867 147 147 147
13.890625000000 15.906250000000 8.570007324219 92 92 92
12.625000000000 16.406250000000 10.874008178711 179 179 179
12.312500000000 16.640625000000 9.766006469727 123 123 123
12.281250000000 16.656250000000 9.742004394531 166 166 166
12.265625000000 16.671875000000 9.722000122070 174 174 174
12.234375000000 16.687500000000 9.718002319336 182 182 182
12.203125000000 16.703125000000 9.708007812500 181 181 181
12.156250000000 16.718750000000 9.710006713867 168 168 168
12.125000000000 16.734375000000 9.701004028320 114 114 114
12.406250000000 16.687500000000 7.994003295898 50 50 50
12.375000000000 16.703125000000 7.990997314453 72 72 72
12.375000000000 16.718750000000 7.969009399414 132 132 132
12.343750000000 16.718750000000 7.962005615234 174 174 174
12.343750000000 16.734375000000 7.934005737305 199 199 199
12.328125000000 16.734375000000 7.915008544922 197 197 197
12.296875000000 16.765625000000 7.908996582031 173 173 173
12.296875000000 16.765625000000 7.874008178711 118 118 118
12.281250000000 16.765625000000 7.861007690430 62 62 62
12.265625000000 16.781250000000 7.848999023438 49 49 49
13.312500000000 15.812500000000 9.647994995117 33 33 33
13.265625000000 15.828125000000 9.630996704102 135 135 135
13.250000000000 15.843750000000 9.632003784180 172 172 172
13.218750000000 15.859375000000 9.637008666992 153 153 153
13.187500000000 15.875000000000 9.638000488281 65 65 65
12.625000000000 16.078125000000 10.863998413086 202 202 202
12.593750000000 16.109375000000 10.869003295898 65 65 65
12.375000000000 16.234375000000 10.525009155273 24 24 24
12.343750000000 16.265625000000 10.520004272461 122 122 122
12.296875000000 16.281250000000 10.533004760742 150 150 150
12.250000000000 16.296875000000 10.565002441406 121 121 121
13.343750000000 15.859375000000 8.339004516602 166 166 166
13.328125000000 15.859375000000 8.319000244141 192 192 192
13.312500000000 15.859375000000 8.316009521484 186 186 186
13.296875000000 15.890625000000 8.326995849609 185 185 185
13.265625000000 15.906250000000 8.339004516602 166 166 166
13.234375000000 15.921875000000 8.350997924805 129 129 129
13.218750000000 15.937500000000 8.343002319336 56 56 56
11.953125000000 16.515625000000 9.688003540039 155 155 155
11.921875000000 16.531250000000 9.682006835938 163 163 163
11.906250000000 16.546875000000 9.645004272461 139 139 139
11.906250000000 16.546875000000 9.576004028320 134 134 134
11.890625000000 16.546875000000 9.565002441406 29 29 29
12.031250000000 16.562500000000 7.722000122070 159 159 159
12.000000000000 16.593750000000 7.718002319336 170 170 170
11.984375000000 16.609375000000 7.699996948242 153 153 153
11.984375000000 16.609375000000 7.666000366211 148 148 148
11.984375000000 16.609375000000 7.628997802734 151 151 151
11.984375000000 16.609375000000 7.598007202148 150 150 150
12.640625000000 15.765625000000 10.867004394531 144 144 144
12.609375000000 15.781250000000 10.850997924805 98 98 98
12.609375000000 15.828125000000 9.682006835938 137 137 137
12.609375000000 15.843750000000 9.649002075195 155 155 155
12.593750000000 15.859375000000 9.652999877930 163 163 163
12.562500000000 15.875000000000 9.651000976563 136 136 136
12.500000000000 15.906250000000 9.690002441406 134 134 134
12.468750000000 15.921875000000 9.682006835938 165 165 165
12.390625000000 15.953125000000 9.753005981445 173 173 173
11.906250000000 16.171875000000 10.524002075195 123 123 123
11.875000000000 16.187500000000 10.513000488281 143 143 143
11.843750000000 16.203125000000 10.477005004883 126 126 126
11.859375000000 16.203125000000 10.395996093750 123 123 123
