7.953125000000 8.750000000000 6.885009765625 50 50 50
7.953125000000 8.750000000000 6.833999633789 167 167 167
7.953125000000 8.750000000000 6.781005859375 167 167 167
7.921875000000 8.765625000000 6.732009887695 156 156 156
7.968750000000 8.750000000000 6.673004150391 203 203 203
7.984375000000 8.750000000000 6.617996215820 118 118 118
8.093750000000 8.296875000000 6.953002929688 86 86 86
8.093750000000 8.296875000000 6.904998779297 118 118 118
8.046875000000 8.343750000000 6.869003295898 121 121 121
8.046875000000 8.343750000000 6.818008422852 201 201 201
8.078125000000 8.343750000000 6.764007568359 190 190 190
8.078125000000 8.343750000000 6.712997436523 182 182 182
8.078125000000 8.343750000000 6.662002563477 200 200 200
8.078125000000 8.343750000000 6.608001708984 62 62 62
8.203125000000 7.890625000000 6.932006835938 130 130 130
8.171875000000 7.906250000000 6.893997192383 50 50 50
8.140625000000 7.937500000000 6.854003906250 153 153 153
8.140625000000 7.937500000000 6.802001953125 177 177 177
8.140625000000 7.937500000000 6.751007080078 175 175 175
8.156250000000 7.921875000000 6.695999145508 193 193 193
8.156250000000 7.921875000000 6.645996093750 175 175 175
8.296875000000 7.484375000000 6.972000122070 15 15 15
8.296875000000 7.484375000000 6.921997070313 139 139 139
8.250000000000 7.515625000000 6.888000488281 66 66 66
8.250000000000 7.515625000000 6.837005615234 184 184 184
8.250000000000 7.515625000000 6.787002563477 106 106 106
8.234375000000 7.531250000000 6.742004394531 144 144 144
8.250000000000 7.531250000000 6.686004638672 199 199 199
8.250000000000 7.531250000000 6.637008666992 150 150 150
8.375000000000 7.109375000000 6.970001220703 29 29 29
8.390625000000 7.109375000000 6.917999267578 125 125 125
8.328125000000 7.156250000000 6.889007568359 30 30 30
8.328125000000 7.156250000000 6.844009399414 186 186 186
8.328125000000 7.156250000000 6.789001464844 209 209 209
8.328125000000 7.156250000000 6.738006591797 207 207 207
8.328125000000 7.156250000000 6.688003540039 209 209 209
8.328125000000 7.156250000000 6.639999389648 155 155 155
8.453125000000 6.750000000000 6.977005004883 19 19 19
8.453125000000 6.750000000000 6.929000854492 142 142 142
8.578125000000 6.359375000000 6.964996337891 101 101 101
8.531250000000 6.375000000000 6.925003051758 117 117 117
8.656250000000 5.953125000000 6.947006225586 135 135 135
8.609375000000 5.984375000000 6.917007446289 14 14 14
8.750000000000 5.531250000000 6.968002319336 135 135 135
8.734375000000 5.546875000000 6.930007934570 90 90 90
8.765625000000 5.171875000000 7.214004516602 21 21 21
8.781250000000 5.171875000000 7.163009643555 73 73 73
8.781250000000 5.171875000000 7.115005493164 89 89 89
8.781250000000 5.171875000000 7.063995361328 106 106 106
8.781250000000 5.171875000000 7.016998291016 123 123 123
8.796875000000 5.171875000000 6.968002319336 76 76 76
8.796875000000 5.171875000000 6.921005249023 125 125 125
8.796875000000 5.187500000000 6.874008178711 140 140 140
8.781250000000 5.187500000000 6.830001831055 145 145 145
8.796875000000 5.187500000000 6.779998779297 164 164 164
8.796875000000 5.187500000000 6.734008789063 169 169 169
8.796875000000 5.187500000000 6.688995361328 179 179 179
8.796875000000 5.187500000000 6.641006469727 179 179 179
8.796875000000 5.187500000000 6.593002319336 180 180 180
8.796875000000 5.187500000000 6.546997070313 194 194 194
8.812500000000 5.187500000000 6.499008178711 203 203 203
8.812500000000 5.187500000000 6.453002929688 198 198 198
8.812500000000 5.187500000000 6.408996582031 192 192 192
8.812500000000 5.187500000000 6.363006591797 197 197 197
8.812500000000 5.187500000000 6.317001342773 193 193 193
8.812500000000 5.187500000000 6.270996093750 194 194 194
8.812500000000 5.187500000000 6.225997924805 197 197 197
8.828125000000 5.203125000000 6.180007934570 194 194 194
8.828125000000 5.203125000000 6.135009765625 196 196 196
8.812500000000 5.203125000000 6.091003417969 190 190 190
8.828125000000 5.203125000000 6.044998168945 187 187 187
8.828125000000 5.203125000000 6.001007080078 208 208 208
8.828125000000 5.203125000000 5.955001831055 198 198 198
8.828125000000 5.203125000000 5.912002563477 202 202 202
8.828125000000 5.218750000000 5.867996215820 201 201 201
8.828125000000 5.218750000000 5.822998046875 203 203 203
8.812500000000 5.234375000000 5.779006958008 203 203 203
8.812500000000 5.234375000000 5.734008789063 205 205 205
8.812500000000 5.234375000000 5.691009521484 207 207 207
8.812500000000 5.234375000000 5.645996093750 207 207 207
8.812500000000 5.234375000000 5.602996826172 210 210 210
8.812500000000 5.234375000000 5.557998657227 216 216 216
8.812500000000 5.234375000000 5.514999389648 218 218 218
8.812500000000 5.234375000000 5.470001220703 220 220 220
8.812500000000 5.234375000000 5.425994873047 218 218 218
8.812500000000 5.250000000000 5.382995605469 216 216 216
8.812500000000 5.250000000000 5.339004516602 216 216 216
8.812500000000 5.250000000000 5.294998168945 227 227 227
8.812500000000 5.265625000000 5.251007080078 226 226 226
8.812500000000 5.265625000000 5.207000732422 224 224 224
8.812500000000 5.265625000000 5.164001464844 216 216 216
8.812500000000 5.265625000000 5.119995117188 218 218 218
8.796875000000 5.281250000000 5.076995849609 216 216 216
8.812500000000 5.281250000000 5.033004760742 208 208 208
8.812500000000 5.281250000000 4.988998413086 213 213 213
8.812500000000 5.281250000000 4.945007324219 219 219 219
8.796875000000 5.281250000000 4.901000976563 222 222 222
8.781250000000 5.296875000000 4.857009887695 213 213 213
8.781250000000 5.296875000000 4.813995361328 216 216 216
8.781250000000 5.296875000000 4.770004272461 211 211 211
8.781250000000 5.296875000000 4.725997924805 209 209 209
8.781250000000 5.296875000000 4.682006835938 197 197 197
8.781250000000 5.312500000000 4.638000488281 195 195 195
8.781250000000 5.312500000000 4.594009399414 180 180 180
8.781250000000 5.312500000000 4.550003051758 186 186 186
8.781250000000 5.328125000000 4.505004882813 186 186 186
8.781250000000 5.328125000000 4.460998535156 177 177 177
8.765625000000 5.328125000000 4.417007446289 170 170 170
8.765625000000 5.343750000000 4.373001098633 156 156 156
8.765625000000 5.343750000000 4.326995849609 167 167 167
8.765625000000 5.343750000000 4.283996582031 130 130 130
8.765625000000 5.343750000000 4.238998413086 118 118 118
8.734375000000 5.359375000000 4.193008422852 61 61 61
8.906250000000 5.359375000000 2.628997802734 91 91 91
8.843750000000 5.390625000000 2.563995361328 83 83 83
9.000000000000 5.359375000000 1.837005615234 186 186 186
8.828125000000 5.078125000000 2.583007812500 56 56 56
8.828125000000 5.078125000000 2.535995483398 94 94 94
7.140625000000 10.625000000000 2.163009643555 209 209 209
7.453125000000 10.812500000000 2.319000244141 183 183 183
7.156250000000 10.640625000000 2.697998046875 156 156 156
7.171875000000 10.656250000000 2.760009765625 62 62 62
7.203125000000 10.671875000000 2.824996948242 29 29 29
7.281250000000 10.765625000000 4.126998901367 25 25 25
7.281250000000 10.765625000000 4.182006835938 80 80 80
7.296875000000 10.765625000000 4.236999511719 107 107 107
7.296875000000 10.765625000000 4.292007446289 118 118 118
7.296875000000 10.765625000000 4.347000122070 123 123 123
7.296875000000 10.781250000000 4.402008056641 165 165 165
7.296875000000 10.796875000000 4.456008911133 158 158 158
7.312500000000 10.796875000000 4.511001586914 164 164 164
7.312500000000 10.796875000000 4.565002441406 166 166 166
7.328125000000 10.812500000000 4.619995117188 175 175 175
7.312500000000 10.796875000000 4.673004150391 178 178 178
7.328125000000 10.812500000000 4.727996826172 176 176 176
7.328125000000 10.812500000000 4.781997680664 193 193 193
7.343750000000 10.828125000000 4.835998535156 202 202 202
7.359375000000 10.828125000000 4.889007568359 201 201 201
7.343750000000 10.828125000000 4.943008422852 206 206 206
7.359375000000 10.828125000000 4.997009277344 209 209 209
7.359375000000 10.828125000000 5.050994873047 213 213 213
7.375000000000 10.843750000000 5.104003906250 204 204 204
7.375000000000 10.843750000000 5.158004760742 208 208 208
7.375000000000 10.859375000000 5.210998535156 220 220 220
7.375000000000 10.859375000000 5.264999389648 226 226 226
7.390625000000 10.859375000000 5.318008422852 227 227 227
7.390625000000 10.859375000000 5.371002197266 225 225 225
7.390625000000 10.859375000000 5.425003051758 226 226 226
7.390625000000 10.875000000000 5.477996826172 226 226 226
7.390625000000 10.875000000000 5.531005859375 223 223 223
7.390625000000 10.890625000000 5.585006713867 219 219 219
7.421875000000 10.890625000000 5.637008666992 208 208 208
7.421875000000 10.890625000000 5.691009521484 214 214 214
7.406250000000 10.890625000000 5.744995117188 221 221 221
7.406250000000 10.890625000000 5.798004150391 219 219 219
7.421875000000 10.906250000000 5.850997924805 216 216 216
7.421875000000 10.906250000000 5.904006958008 220 220 220
7.437500000000 10.921875000000 5.957000732422 219 219 219
7.437500000000 10.921875000000 6.011001586914 209 209 209
7.437500000000 10.921875000000 6.063003540039 202 202 202
7.453125000000 10.921875000000 6.117004394531 205 205 205
7.453125000000 10.921875000000 6.169998168945 205 205 205
7.453125000000 10.937500000000 6.223999023438 207 207 207
7.468750000000 10.937500000000 6.276000976563 209 209 209
7.468750000000 10.953125000000 6.330001831055 201 201 201
7.468750000000 10.953125000000 6.382995605469 206 206 206
7.484375000000 10.953125000000 6.436996459961 191 191 191
7.484375000000 10.953125000000 6.490997314453 182 182 182
7.484375000000 10.953125000000 6.544998168945 192 192 192
7.484375000000 10.953125000000 6.598007202148 195 195 195
7.484375000000 10.968750000000 6.652999877930 192 192 192
7.500000000000 10.968750000000 6.706008911133 193 193 193
7.484375000000 10.984375000000 6.761001586914 196 196 196
7.484375000000 10.984375000000 6.813003540039 202 202 202
7.484375000000 10.984375000000 6.867996215820 193 193 193
7.484375000000 10.984375000000 6.923995971680 188 188 188
7.484375000000 10.984375000000 6.975006103516 151 151 151
7.484375000000 10.984375000000 7.033004760742 187 187 187
7.484375000000 11.000000000000 7.087005615234 189 189 189
7.484375000000 11.000000000000 7.141998291016 189 189 189
7.484375000000 11.000000000000 7.197998046875 188 188 188
7.484375000000 11.000000000000 7.253997802734 191 191 191
7.500000000000 11.015625000000 7.307998657227 191 191 191
7.500000000000 11.015625000000 7.365005493164 185 185 185
7.515625000000 11.015625000000 7.416000366211 175 175 175
7.500000000000 11.015625000000 7.475997924805 167 167 167
7.515625000000 11.015625000000 7.531005859375 160 160 160
7.515625000000 11.031250000000 7.585006713867 155 155 155
7.546875000000 10.703125000000 6.949005126953 102 102 102
7.593750000000 10.406250000000 6.921997070313 62 62 62
7.609375000000 10.421875000000 6.973999023438 72 72 72
7.671875000000 10.109375000000 6.930007934570 92 92 92
7.671875000000 10.109375000000 6.983001708984 59 59 59
7.750000000000 9.796875000000 6.921005249023 58 58 58
7.750000000000 9.796875000000 6.973007202148 88 88 88
7.828125000000 9.484375000000 6.910995483398 55 55 55
7.812500000000 9.484375000000 6.960006713867 88 88 88
7.859375000000 9.156250000000 6.611007690430 26 26 26
7.875000000000 9.171875000000 6.660995483398 202 202 202
7.875000000000 9.171875000000 6.712005615234 215 215 215
7.875000000000 9.171875000000 6.766998291016 213 213 213
7.859375000000 9.171875000000 6.822006225586 213 213 213
7.859375000000 9.171875000000 6.875000000000 156 156 156
7.890625000000 9.203125000000 6.914001464844 120 120 120
7.890625000000 9.203125000000 6.964996337891 97 97 97
7.937500000000 8.890625000000 6.626998901367 114 114 114
7.937500000000 8.875000000000 6.680999755859 210 210 210
7.937500000000 8.875000000000 6.734008789063 139 139 139
7.921875000000 8.875000000000 6.788009643555 185 185 185
7.937500000000 8.890625000000 6.839996337891 200 200 200
7.921875000000 8.875000000000 6.895004272461 102 102 102
7.953125000000 8.921875000000 6.932006835938 152 152 152
7.968750000000 8.937500000000 6.977005004883 9 9 9
8.015625000000 8.609375000000 6.645004272461 158 158 158
8.015625000000 8.609375000000 6.697006225586 202 202 202
8.015625000000 8.609375000000 6.748001098633 183 183 183
8.000000000000 8.609375000000 6.800994873047 208 208 208
8.000000000000 8.609375000000 6.854003906250 192 192 192
8.000000000000 8.609375000000 6.906005859375 79 79 79
8.015625000000 8.640625000000 6.945999145508 144 144 144
8.078125000000 8.312500000000 6.643997192383 140 140 140
8.078125000000 8.296875000000 6.697006225586 210 210 210
8.062500000000 8.296875000000 6.751007080078 187 187 187
8.078125000000 8.296875000000 6.802001953125 210 210 210
8.078125000000 8.296875000000 6.852996826172 199 199 199
8.062500000000 8.296875000000 6.906997680664 96 96 96
8.093750000000 8.328125000000 6.945007324219 146 146 146
8.140625000000 7.984375000000 6.637008666992 90 90 90
8.140625000000 8.000000000000 6.686996459961 199 199 199
8.140625000000 8.000000000000 6.738998413086 206 206 206
8.140625000000 7.984375000000 6.791000366211 209 209 209
8.140625000000 7.984375000000 6.844009399414 211 211 211
8.140625000000 7.984375000000 6.895996093750 147 147 147
8.187500000000 8.031250000000 6.929000854492 138 138 138
8.171875000000 8.031250000000 6.983001708984 95 95 95
8.218750000000 7.687500000000 6.635009765625 118 118 118
8.218750000000 7.687500000000 6.686004638672 212 212 212
8.218750000000 7.687500000000 6.736007690430 143 143 143
8.218750000000 7.687500000000 6.787002563477 190 190 190
8.218750000000 7.671875000000 6.839996337891 189 189 189
8.218750000000 7.671875000000 6.891006469727 146 146 146
8.234375000000 7.703125000000 6.932006835938 136 136 136
8.234375000000 7.703125000000 6.984008789063 61 61 61
8.296875000000 7.390625000000 6.639007568359 155 155 155
8.281250000000 7.390625000000 6.691009521484 214 214 214
8.296875000000 7.390625000000 6.738998413086 204 204 204
8.281250000000 7.390625000000 6.792007446289 138 138 138
8.281250000000 7.390625000000 6.845001220703 197 197 197
8.281250000000 7.390625000000 6.893005371094 139 139 139
8.312500000000 7.421875000000 6.934005737305 138 138 138
8.328125000000 7.421875000000 6.983001708984 40 40 40
8.375000000000 7.125000000000 6.649002075195 143 143 143
8.359375000000 7.109375000000 6.701004028320 164 164 164
8.359375000000 7.109375000000 6.751998901367 159 159 159
8.359375000000 7.109375000000 6.800994873047 161 161 161
8.343750000000 7.109375000000 6.854003906250 161 161 161
8.343750000000 7.109375000000 6.904006958008 127 127 127
8.390625000000 7.140625000000 6.940002441406 128 128 128
8.390625000000 7.140625000000 6.992996215820 42 42 42
8.453125000000 6.828125000000 6.949005126953 144 144 144
8.453125000000 6.843750000000 6.996002197266 24 24 24
8.515625000000 6.531250000000 6.945007324219 131 131 131
8.531250000000 6.546875000000 6.990997314453 94 94 94
8.578125000000 6.218750000000 6.936996459961 101 101 101
8.593750000000 6.234375000000 6.982009887695 129 129 129
8.656250000000 5.906250000000 6.932006835938 54 54 54
8.671875000000 5.921875000000 6.975006103516 147 147 147
8.718750000000 5.609375000000 6.930007934570 35 35 35
8.734375000000 5.609375000000 6.973999023438 148 148 148
8.750000000000 5.218750000000 4.000000000000 151 151 151
8.734375000000 5.203125000000 4.041000366211 218 218 218
8.750000000000 5.203125000000 4.087997436523 196 196 196
8.765625000000 5.234375000000 4.135009765625 159 159 159
8.765625000000 5.234375000000 4.180007934570 170 170 170
8.765625000000 5.234375000000 4.225006103516 177 177 177
8.781250000000 5.234375000000 4.270996093750 179 179 179
8.781250000000 5.234375000000 4.315002441406 185 185 185
8.781250000000 5.250000000000 4.360000610352 186 186 186
8.781250000000 5.250000000000 4.404006958008 193 193 193
8.781250000000 5.250000000000 4.449005126953 192 192 192
8.781250000000 5.250000000000 4.494003295898 206 206 206
8.781250000000 5.250000000000 4.538009643555 202 202 202
8.781250000000 5.250000000000 4.583007812500 210 210 210
8.796875000000 5.250000000000 4.626998901367 210 210 210
8.796875000000 5.265625000000 4.671997070313 204 204 204
8.796875000000 5.265625000000 4.716003417969 205 205 205
8.796875000000 5.265625000000 4.760009765625 202 202 202
8.796875000000 5.265625000000 4.804000854492 199 199 199
8.812500000000 5.265625000000 4.848999023438 208 208 208
8.812500000000 5.265625000000 4.893005371094 212 212 212
8.812500000000 5.265625000000 4.936996459961 213 213 213
8.812500000000 5.265625000000 4.981002807617 209 209 209
8.812500000000 5.265625000000 5.025009155273 205 205 205
8.812500000000 5.281250000000 5.069000244141 205 205 205
8.812500000000 5.281250000000 5.113998413086 211 211 211
8.828125000000 5.281250000000 5.158004760742 211 211 211
8.828125000000 5.281250000000 5.201995849609 214 214 214
8.828125000000 5.281250000000 5.246002197266 211 211 211
8.828125000000 5.281250000000 5.290008544922 204 204 204
8.828125000000 5.296875000000 5.333999633789 201 201 201
8.828125000000 5.296875000000 5.378005981445 202 202 202
8.796875000000 5.296875000000 5.423995971680 197 197 197
8.812500000000 5.296875000000 5.466995239258 197 197 197
8.812500000000 5.296875000000 5.511001586914 193 193 193
8.828125000000 5.296875000000 5.555999755859 196 196 196
8.812500000000 5.296875000000 5.600997924805 185 185 185
8.812500000000 5.296875000000 5.645004272461 201 201 201
8.812500000000 5.296875000000 5.688995361328 200 200 200
8.812500000000 5.296875000000 5.734008789063 195 195 195
8.812500000000 5.312500000000 5.777999877930 200 200 200
8.812500000000 5.312500000000 5.824005126953 192 192 192
8.812500000000 5.312500000000 5.867996215820 195 195 195
8.812500000000 5.312500000000 5.913009643555 205 205 205
8.828125000000 5.312500000000 5.957000732422 197 197 197
8.828125000000 5.328125000000 6.001007080078 201 201 201
8.828125000000 5.328125000000 6.046005249023 198 198 198
8.828125000000 5.328125000000 6.091995239258 201 201 201
8.812500000000 5.312500000000 6.138000488281 191 191 191
8.828125000000 5.328125000000 6.182998657227 198 198 198
8.812500000000 5.312500000000 6.229995727539 189 189 189
8.812500000000 5.312500000000 6.274002075195 200 200 200
8.828125000000 5.328125000000 6.318008422852 204 204 204
8.828125000000 5.328125000000 6.363998413086 199 199 199
8.828125000000 5.328125000000 6.408996582031 204 204 204
8.828125000000 5.328125000000 6.456008911133 204 204 204
8.828125000000 5.328125000000 6.501007080078 195 195 195
8.828125000000 5.328125000000 6.548004150391 191 191 191
8.828125000000 5.328125000000 6.594009399414 194 194 194
8.828125000000 5.328125000000 6.641006469727 193 193 193
8.828125000000 5.328125000000 6.684997558594 188 188 188
8.828125000000 5.328125000000 6.732009887695 189 189 189
8.828125000000 5.343750000000 6.779006958008 186 186 186
8.828125000000 5.343750000000 6.826995849609 192 192 192
8.828125000000 5.343750000000 6.875000000000 180 180 180
8.843750000000 5.343750000000 6.917999267578 183 183 183
8.875000000000 5.375000000000 6.951995849609 122 122 122
8.859375000000 5.359375000000 7.007995605469 136 136 136
8.828125000000 5.343750000000 7.063003540039 184 184 184
8.828125000000 5.343750000000 7.111999511719 183 183 183
8.828125000000 5.343750000000 7.160995483398 177 177 177
8.843750000000 5.359375000000 7.203994750977 174 174 174
8.828125000000 5.359375000000 7.259002685547 173 173 173
8.828125000000 5.359375000000 7.307006835938 167 167 167
8.812500000000 5.343750000000 7.358001708984 170 170 170
8.828125000000 5.359375000000 7.402999877930 167 167 167
8.812500000000 5.343750000000 7.457000732422 165 165 165
8.828125000000 5.359375000000 7.501998901367 155 155 155
8.828125000000 5.359375000000 7.552001953125 150 150 150
8.828125000000 5.359375000000 7.602996826172 148 148 148
23.156250000000 8.843750000000 3.429000854492 189 189 189
23.296875000000 8.828125000000 3.453002929688 174 174 174
23.312500000000 8.843750000000 3.497009277344 170 170 170
23.296875000000 8.828125000000 3.544006347656 168 168 168
23.328125000000 8.828125000000 3.721008300781 149 149 149
23.265625000000 8.828125000000 3.772994995117 183 183 183
23.359375000000 8.828125000000 3.897994995117 166 166 166
23.343750000000 8.828125000000 3.944000244141 167 167 167
23.359375000000 8.828125000000 3.988006591797 171 171 171
23.359375000000 8.828125000000 4.033004760742 163 163 163
23.359375000000 8.828125000000 4.078002929688 147 147 147
23.375000000000 8.828125000000 4.122009277344 157 157 157
23.359375000000 8.828125000000 4.167007446289 153 153 153
23.375000000000 8.828125000000 4.210998535156 147 147 147
23.375000000000 8.828125000000 4.255996704102 143 143 143
23.375000000000 8.828125000000 4.300994873047 131 131 131
23.375000000000 8.828125000000 4.346008300781 119 119 119
23.390625000000 8.828125000000 4.389999389648 137 137 137
23.406250000000 8.828125000000 4.434997558594 143 143 143
23.406250000000 8.828125000000 4.479995727539 135 135 135
23.390625000000 8.828125000000 4.525009155273 131 131 131
23.390625000000 8.828125000000 4.570007324219 129 129 129
23.406250000000 8.828125000000 4.615005493164 121 121 121
23.406250000000 8.828125000000 4.660003662109 118 118 118
23.406250000000 8.828125000000 4.705001831055 113 113 113
23.421875000000 8.828125000000 4.750000000000 94 94 94
23.421875000000 8.828125000000 4.794998168945 89 89 89
23.406250000000 8.828125000000 4.839996337891 77 77 77
23.421875000000 8.828125000000 4.885009765625 63 63 63
23.421875000000 8.828125000000 4.930007934570 52 52 52
23.421875000000 8.828125000000 4.975006103516 23 23 23
23.578125000000 8.812500000000 7.469009399414 98 98 98
23.515625000000 8.812500000000 7.497009277344 146 146 146
23.468750000000 9.140625000000 7.466995239258 128 128 128
23.437500000000 9.140625000000 7.509002685547 113 113 113
23.437500000000 9.453125000000 7.443008422852 38 38 38
23.406250000000 9.453125000000 7.485000610352 163 163 163
23.359375000000 9.765625000000 7.460998535156 142 142 142
23.343750000000 9.765625000000 7.507995605469 98 98 98
23.296875000000 10.093750000000 7.470001220703 160 160 160
23.296875000000 10.093750000000 7.522994995117 28 28 28
23.265625000000 10.421875000000 7.436996459961 15 15 15
23.234375000000 10.421875000000 7.477005004883 164 164 164
23.203125000000 10.750000000000 7.436996459961 76 76 76
23.171875000000 10.750000000000 7.477005004883 150 150 150
23.140625000000 11.078125000000 7.154998779297 101 101 101
23.140625000000 11.078125000000 7.201995849609 204 204 204
23.156250000000 11.062500000000 7.255996704102 174 174 174
23.171875000000 11.078125000000 7.311004638672 173 173 173
23.171875000000 11.062500000000 7.361007690430 186 186 186
23.156250000000 11.062500000000 7.406005859375 57 57 57
23.125000000000 11.062500000000 7.444000244141 123 123 123
23.109375000000 11.062500000000 7.488006591797 123 123 123
23.093750000000 11.375000000000 7.175003051758 166 166 166
23.093750000000 11.375000000000 7.223007202148 184 184 184
23.109375000000 11.375000000000 7.279006958008 200 200 200
23.109375000000 11.375000000000 7.328994750977 172 172 172
23.109375000000 11.375000000000 7.378005981445 181 181 181
23.109375000000 11.375000000000 7.425994873047 17 17 17
23.078125000000 11.375000000000 7.460006713867 166 166 166
23.093750000000 11.375000000000 7.514999389648 16 16 16
23.046875000000 11.687500000000 7.152999877930 72 72 72
23.046875000000 11.687500000000 7.199005126953 200 200 200
23.046875000000 11.687500000000 7.244995117188 147 147 147
23.046875000000 11.687500000000 7.296005249023 194 194 194
23.062500000000 11.687500000000 7.347000122070 206 206 206
23.062500000000 11.687500000000 7.395996093750 129 129 129
23.031250000000 11.687500000000 7.434997558594 105 105 105
23.015625000000 11.687500000000 7.477996826172 143 143 143
22.984375000000 12.015625000000 7.166000366211 109 109 109
22.984375000000 12.015625000000 7.208999633789 205 205 205
22.984375000000 12.015625000000 7.259002685547 195 195 195
23.000000000000 12.015625000000 7.313003540039 187 187 187
23.000000000000 12.015625000000 7.363006591797 206 206 206
23.000000000000 12.015625000000 7.408996582031 98 98 98
22.968750000000 12.015625000000 7.445007324219 129 129 129
22.953125000000 12.015625000000 7.488006591797 130 130 130
22.937500000000 12.343750000000 7.167999267578 126 126 126
22.937500000000 12.343750000000 7.212997436523 208 208 208
22.937500000000 12.343750000000 7.264999389648 186 186 186
22.953125000000 12.328125000000 7.317001342773 192 192 192
22.953125000000 12.328125000000 7.365005493164 199 199 199
22.937500000000 12.343750000000 7.408996582031 92 92 92
22.921875000000 12.343750000000 7.445007324219 123 123 123
22.890625000000 12.343750000000 7.488998413086 137 137 137
22.875000000000 12.671875000000 7.169998168945 133 133 133
22.875000000000 12.671875000000 7.216995239258 202 202 202
22.890625000000 12.671875000000 7.270004272461 26 26 26
22.890625000000 12.671875000000 7.319000244141 144 144 144
22.890625000000 12.671875000000 7.367004394531 190 190 190
22.890625000000 12.671875000000 7.417007446289 75 75 75
22.859375000000 12.671875000000 7.451995849609 128 128 128
22.828125000000 12.671875000000 7.490005493164 131 131 131
22.828125000000 12.984375000000 7.186996459961 177 177 177
22.812500000000 12.984375000000 7.229003906250 194 194 194
22.843750000000 12.984375000000 7.283996582031 144 144 144
22.828125000000 12.984375000000 7.328994750977 166 166 166
22.843750000000 12.984375000000 7.378997802734 183 183 183
22.843750000000 12.984375000000 7.427001953125 15 15 15
22.796875000000 12.984375000000 7.458999633789 137 137 137
22.796875000000 12.984375000000 7.509002685547 27 27 27
22.781250000000 13.296875000000 7.449005126953 37 37 37
22.734375000000 13.296875000000 7.481002807617 142 142 142
22.687500000000 13.609375000000 7.457000732422 97 97 97
22.671875000000 13.609375000000 7.494995117188 119 119 119
22.625000000000 13.921875000000 7.464996337891 87 87 87
22.609375000000 13.937500000000 7.503005981445 113 113 113
22.593750000000 14.265625000000 7.473007202148 16 16 16
22.562500000000 14.265625000000 7.503997802734 147 147 147
22.250000000000 14.609375000000 2.263000488281 179 179 179
22.265625000000 14.609375000000 2.305007934570 183 183 183
22.328125000000 14.609375000000 2.328002929688 162 162 162
22.281250000000 14.609375000000 2.389007568359 173 173 173
22.203125000000 14.609375000000 2.460006713867 186 186 186
22.328125000000 14.609375000000 2.639007568359 162 162 162
22.328125000000 14.609375000000 2.682998657227 181 181 181
22.328125000000 14.609375000000 2.719009399414 171 171 171
22.359375000000 14.609375000000 2.755996704102 163 163 163
22.359375000000 14.609375000000 2.800003051758 166 166 166
22.359375000000 14.609375000000 2.841003417969 168 168 168
22.375000000000 14.609375000000 2.882003784180 170 170 170
22.375000000000 14.609375000000 2.925994873047 170 170 170
22.359375000000 14.609375000000 2.970001220703 168 168 168
22.375000000000 14.609375000000 3.010009765625 178 178 178
22.375000000000 14.609375000000 3.050994873047 174 174 174
22.375000000000 14.609375000000 3.091995239258 178 178 178
22.375000000000 14.609375000000 3.135009765625 176 176 176
22.375000000000 14.609375000000 3.177001953125 173 173 173
22.375000000000 14.609375000000 3.220001220703 176 176 176
22.375000000000 14.609375000000 3.260009765625 177 177 177
22.375000000000 14.609375000000 3.302001953125 181 181 181
22.375000000000 14.609375000000 3.343002319336 177 177 177
22.390625000000 14.609375000000 3.384002685547 179 179 179
22.390625000000 14.609375000000 3.425003051758 181 181 181
22.390625000000 14.609375000000 3.464996337891 180 180 180
22.390625000000 14.609375000000 3.505996704102 179 179 179
22.390625000000 14.609375000000 3.548004150391 189 189 189
22.390625000000 14.609375000000 3.587997436523 185 185 185
22.390625000000 14.609375000000 3.628997802734 185 185 185
22.390625000000 14.609375000000 3.669006347656 183 183 183
22.390625000000 14.609375000000 3.710998535156 181 181 181
22.390625000000 14.609375000000 3.751007080078 182 182 182
22.390625000000 14.609375000000 3.791000366211 182 182 182
22.390625000000 14.609375000000 3.832000732422 183 183 183
22.406250000000 14.609375000000 3.871002197266 182 182 182
22.390625000000 14.593750000000 3.912002563477 184 184 184
22.406250000000 14.609375000000 3.951004028320 186 186 186
22.406250000000 14.609375000000 3.992004394531 184 184 184
22.406250000000 14.609375000000 4.031997680664 181 181 181
22.390625000000 14.609375000000 4.074005126953 197 197 197
22.406250000000 14.609375000000 4.113006591797 193 193 193
22.390625000000 14.593750000000 4.154006958008 188 188 188
22.406250000000 14.609375000000 4.193008422852 193 193 193
22.406250000000 14.609375000000 4.233001708984 184 184 184
22.406250000000 14.609375000000 4.272994995117 193 193 193
22.406250000000 14.609375000000 4.313003540039 196 196 196
22.406250000000 14.609375000000 4.352996826172 193 193 193
22.406250000000 14.609375000000 4.393005371094 197 197 197
22.406250000000 14.609375000000 4.432998657227 196 196 196
22.406250000000 14.609375000000 4.473007202148 199 199 199
22.406250000000 14.609375000000 4.512008666992 202 202 202
22.406250000000 14.609375000000 4.552001953125 196 196 196
22.406250000000 14.609375000000 4.591995239258 194 194 194
22.406250000000 14.609375000000 4.632003784180 199 199 199
22.406250000000 14.609375000000 4.671997070313 198 198 198
22.406250000000 14.609375000000 4.712005615234 195 195 195
22.406250000000 14.609375000000 4.751998901367 198 198 198
22.406250000000 14.609375000000 4.791000366211 205 205 205
22.406250000000 14.609375000000 4.831008911133 204 204 204
22.421875000000 14.609375000000 4.871002197266 205 205 205
22.421875000000 14.609375000000 4.910995483398 205 205 205
22.406250000000 14.609375000000 4.951004028320 202 202 202
22.421875000000 14.609375000000 4.990997314453 204 204 204
22.406250000000 14.609375000000 5.031005859375 205 205 205
22.421875000000 14.609375000000 5.070999145508 206 206 206
22.421875000000 14.593750000000 5.111007690430 207 207 207
22.421875000000 14.609375000000 5.151000976563 205 205 205
22.421875000000 14.609375000000 5.191009521484 203 203 203
22.421875000000 14.593750000000 5.231002807617 203 203 203
22.421875000000 14.593750000000 5.270996093750 193 193 193
22.421875000000 14.593750000000 5.311004638672 198 198 198
22.421875000000 14.593750000000 5.352005004883 203 203 203
22.421875000000 14.593750000000 5.391998291016 202 202 202
22.421875000000 14.593750000000 5.432006835938 200 200 200
22.421875000000 14.593750000000 5.472000122070 204 204 204
22.421875000000 14.593750000000 5.513000488281 201 201 201
22.421875000000 14.593750000000 5.553009033203 197 197 197
22.421875000000 14.593750000000 5.593002319336 199 199 199
22.421875000000 14.593750000000 5.634002685547 199 199 199
22.421875000000 14.593750000000 5.675003051758 198 198 198
22.421875000000 14.593750000000 5.716003417969 201 201 201
22.421875000000 14.593750000000 5.755996704102 202 202 202
22.421875000000 14.593750000000 5.796997070313 193 193 193
22.437500000000 14.609375000000 5.839004516602 191 191 191
22.437500000000 14.609375000000 5.880996704102 192 192 192
22.437500000000 14.609375000000 5.921005249023 189 189 189
22.437500000000 14.609375000000 5.962005615234 190 190 190
22.437500000000 14.609375000000 6.003997802734 193 193 193
22.437500000000 14.609375000000 6.044998168945 194 194 194
22.437500000000 14.609375000000 6.085998535156 191 191 191
22.437500000000 14.609375000000 6.128997802734 193 193 193
22.421875000000 14.593750000000 6.167999267578 190 190 190
22.437500000000 14.609375000000 6.210006713867 189 189 189
22.421875000000 14.593750000000 6.251007080078 193 193 193
22.437500000000 14.593750000000 6.296005249023 193 193 193
22.437500000000 14.609375000000 6.337005615234 192 192 192
22.437500000000 14.609375000000 6.378997802734 189 189 189
22.437500000000 14.609375000000 6.421005249023 188 188 188
22.437500000000 14.609375000000 6.462997436523 186 186 186
22.437500000000 14.609375000000 6.505996704102 184 184 184
22.437500000000 14.593750000000 6.550003051758 183 183 183
22.453125000000 14.593750000000 6.596008300781 188 188 188
22.437500000000 14.593750000000 6.635009765625 182 182 182
22.437500000000 14.593750000000 6.679000854492 182 182 182
22.437500000000 14.593750000000 6.722000122070 179 179 179
22.453125000000 14.593750000000 6.766998291016 183 183 183
22.437500000000 14.593750000000 6.809997558594 183 183 183
22.453125000000 14.593750000000 6.854003906250 179 179 179
22.453125000000 14.593750000000 6.899002075195 179 179 179
22.437500000000 14.593750000000 6.941009521484 178 178 178
22.453125000000 14.593750000000 6.986999511719 177 177 177
22.437500000000 14.593750000000 7.029006958008 183 183 183
22.453125000000 14.593750000000 7.074996948242 186 186 186
22.453125000000 14.593750000000 7.119003295898 183 183 183
22.453125000000 14.593750000000 7.167007446289 172 172 172
22.453125000000 14.593750000000 7.212997436523 177 177 177
22.453125000000 14.593750000000 7.257003784180 178 178 178
22.453125000000 14.593750000000 7.304000854492 174 174 174
22.453125000000 14.593750000000 7.347000122070 172 172 172
22.468750000000 14.593750000000 7.397003173828 174 174 174
22.468750000000 14.593750000000 7.445007324219 164 164 164
22.453125000000 14.593750000000 7.486999511719 163 163 163
22.453125000000 14.593750000000 7.531997680664 150 150 150
22.468750000000 14.593750000000 7.585006713867 170 170 170
22.468750000000 14.593750000000 7.628997802734 166 166 166
22.468750000000 14.593750000000 7.675994873047 164 164 164
22.468750000000 14.593750000000 7.725997924805 168 168 168
22.468750000000 14.593750000000 7.770996093750 163 163 163
22.468750000000 14.593750000000 7.818008422852 163 163 163
22.484375000000 14.593750000000 7.873001098633 165 165 165
22.468750000000 14.593750000000 7.917999267578 165 165 165
22.468750000000 14.593750000000 7.968002319336 160 160 160
22.468750000000 14.593750000000 8.016998291016 161 161 161
22.484375000000 14.593750000000 8.070999145508 157 157 157
22.484375000000 14.593750000000 8.117996215820 157 157 157
22.468750000000 14.593750000000 8.167007446289 160 160 160
22.484375000000 14.593750000000 8.219009399414 168 168 168
22.484375000000 14.593750000000 8.268005371094 166 166 166
22.484375000000 14.578125000000 8.320999145508 169 169 169
22.468750000000 14.593750000000 8.363998413086 83 83 83
22.250000000000 14.609375000000 2.219009399414 158 158 158
23.640625000000 8.640625000000 8.186004638672 54 54 54
23.562500000000 8.687500000000 2.375000000000 221 221 221
23.421875000000 8.656250000000 3.483001708984 29 29 29
23.406250000000 8.656250000000 3.538009643555 97 97 97
23.406250000000 8.656250000000 3.589996337891 129 129 129
23.390625000000 8.656250000000 3.641998291016 144 144 144
23.390625000000 8.656250000000 3.695007324219 155 155 155
23.390625000000 8.656250000000 3.746002197266 160 160 160
23.375000000000 8.656250000000 3.798995971680 169 169 169
23.390625000000 8.656250000000 3.850006103516 179 179 179
23.390625000000 8.671875000000 3.901000976563 190 190 190
23.390625000000 8.671875000000 3.953002929688 198 198 198
23.375000000000 8.656250000000 4.003997802734 200 200 200
23.375000000000 8.656250000000 4.055999755859 202 202 202
23.375000000000 8.656250000000 4.107009887695 202 202 202
23.375000000000 8.656250000000 4.158004760742 207 207 207
23.375000000000 8.671875000000 4.208999633789 211 211 211
23.375000000000 8.671875000000 4.260009765625 206 206 206
23.375000000000 8.671875000000 4.311004638672 203 203 203
23.359375000000 8.671875000000 4.361999511719 203 203 203
23.375000000000 8.671875000000 4.412002563477 210 210 210
23.375000000000 8.671875000000 4.462997436523 209 209 209
23.359375000000 8.671875000000 4.514007568359 207 207 207
23.375000000000 8.671875000000 4.565002441406 207 207 207
23.359375000000 8.671875000000 4.615005493164 208 208 208
23.375000000000 8.687500000000 4.666000366211 206 206 206
23.375000000000 8.687500000000 4.716003417969 206 206 206
23.375000000000 8.687500000000 4.766998291016 197 197 197
23.375000000000 8.687500000000 4.818008422852 201 201 201
23.375000000000 8.687500000000 4.867996215820 207 207 207
23.375000000000 8.687500000000 4.919006347656 212 212 212
23.375000000000 8.687500000000 4.970001220703 218 218 218
23.390625000000 8.703125000000 5.020004272461 209 209 209
23.390625000000 8.703125000000 5.070999145508 203 203 203
23.390625000000 8.703125000000 5.122009277344 201 201 201
23.390625000000 8.703125000000 5.173004150391 206 206 206
23.390625000000 8.703125000000 5.223999023438 206 206 206
23.390625000000 8.703125000000 5.274002075195 207 207 207
23.390625000000 8.718750000000 5.326004028320 211 211 211
23.390625000000 8.718750000000 5.376998901367 212 212 212
23.390625000000 8.718750000000 5.428009033203 204 204 204
23.390625000000 8.734375000000 5.479995727539 207 207 207
23.406250000000 8.734375000000 5.531005859375 207 207 207
23.406250000000 8.734375000000 5.583007812500 215 215 215
23.406250000000 8.734375000000 5.635009765625 206 206 206
23.406250000000 8.734375000000 5.686004638672 190 190 190
23.421875000000 8.734375000000 5.738006591797 192 192 192
23.421875000000 8.734375000000 5.790008544922 196 196 196
23.437500000000 8.750000000000 5.843002319336 184 184 184
23.421875000000 8.750000000000 5.893005371094 169 169 169
23.437500000000 8.750000000000 5.945999145508 159 159 159
23.437500000000 8.765625000000 5.999008178711 171 171 171
23.453125000000 8.765625000000 6.053009033203 137 137 137
23.453125000000 8.765625000000 6.104995727539 130 130 130
23.468750000000 8.781250000000 6.158996582031 100 100 100
23.484375000000 8.796875000000 6.214004516602 38 38 38
23.562500000000 8.890625000000 7.485000610352 45 45 45
23.531250000000 8.875000000000 7.531997680664 155 155 155
23.234375000000 8.843750000000 2.289001464844 169 169 169
23.250000000000 8.859375000000 2.341003417969 182 182 182
23.281250000000 8.859375000000 2.386001586914 200 200 200
23.296875000000 8.875000000000 2.432998657227 211 211 211
23.484375000000 9.171875000000 7.497009277344 125 125 125
23.468750000000 9.171875000000 7.550003051758 93 93 93
23.421875000000 9.453125000000 7.514999389648 157 157 157
23.390625000000 9.765625000000 7.485000610352 116 116 116
23.375000000000 9.750000000000 7.535003662109 108 108 108
23.328125000000 10.046875000000 7.507003784180 157 157 157
23.281250000000 10.343750000000 7.477996826172 94 94 94
23.265625000000 10.328125000000 7.525009155273 131 131 131
23.203125000000 10.640625000000 7.485000610352 135 135 135
23.218750000000 10.640625000000 7.542007446289 50 50 50
23.187500000000 10.937500000000 7.180999755859 96 96 96
23.187500000000 10.937500000000 7.235000610352 106 106 106
23.187500000000 10.953125000000 7.291000366211 118 118 118
23.218750000000 10.968750000000 7.350006103516 130 130 130
23.203125000000 10.953125000000 7.404006958008 139 139 139
23.203125000000 10.953125000000 7.456008911133 114 114 114
23.171875000000 10.953125000000 7.500000000000 150 150 150
23.140625000000 11.234375000000 7.201995849609 173 173 173
23.140625000000 11.234375000000 7.255004882813 209 209 209
23.140625000000 11.234375000000 7.309005737305 158 158 158
23.171875000000 11.265625000000 7.369003295898 186 186 186
23.156250000000 11.265625000000 7.421997070313 125 125 125
23.140625000000 11.250000000000 7.466995239258 92 92 92
23.093750000000 11.234375000000 7.511001586914 127 127 127
23.078125000000 11.515625000000 7.171997070313 65 65 65
23.093750000000 11.531250000000 7.225997924805 210 210 210
23.093750000000 11.531250000000 7.279006958008 211 211 211
23.109375000000 11.546875000000 7.337997436523 172 172 172
23.109375000000 11.546875000000 7.393005371094 186 186 186
23.109375000000 11.546875000000 7.444000244141 30 30 30
23.062500000000 11.515625000000 7.485000610352 157 157 157
23.093750000000 11.546875000000 7.550003051758 11 11 11
23.046875000000 11.812500000000 7.201004028320 164 164 164
23.046875000000 11.812500000000 7.253997802734 196 196 196
23.046875000000 11.828125000000 7.309997558594 198 198 198
23.062500000000 11.828125000000 7.365005493164 201 201 201
23.062500000000 11.828125000000 7.417999267578 159 159 159
23.046875000000 11.828125000000 7.466995239258 81 81 81
23.000000000000 11.796875000000 7.509002685547 140 140 140
23.000000000000 12.109375000000 7.171005249023 22 22 22
23.000000000000 12.109375000000 7.223999023438 196 196 196
23.000000000000 12.109375000000 7.275009155273 202 202 202
23.000000000000 12.109375000000 7.328994750977 202 202 202
23.015625000000 12.125000000000 7.385009765625 211 211 211
23.000000000000 12.109375000000 7.434997558594 95 95 95
22.968750000000 12.109375000000 7.479003906250 135 135 135
22.953125000000 12.109375000000 7.527999877930 86 86 86
22.937500000000 12.421875000000 7.178009033203 73 73 73
22.921875000000 12.421875000000 7.232009887695 210 210 210
22.953125000000 12.421875000000 7.285995483398 166 166 166
22.937500000000 12.421875000000 7.341003417969 201 201 201
22.953125000000 12.437500000000 7.399002075195 193 193 193
22.937500000000 12.421875000000 7.445007324219 64 64 64
22.921875000000 12.421875000000 7.488998413086 154 154 154
22.921875000000 12.421875000000 7.544998168945 50 50 50
22.875000000000 12.718750000000 7.188995361328 114 114 114
22.875000000000 12.718750000000 7.242996215820 206 206 206
22.890625000000 12.734375000000 7.298995971680 141 141 141
22.890625000000 12.734375000000 7.352996826172 163 163 163
22.890625000000 12.734375000000 7.404998779297 191 191 191
22.906250000000 12.750000000000 7.464004516602 6 6 6
22.843750000000 12.718750000000 7.494003295898 145 145 145
22.828125000000 13.015625000000 7.210998535156 188 188 188
22.828125000000 13.015625000000 7.264007568359 213 213 213
22.843750000000 13.031250000000 7.318008422852 212 212 212
22.843750000000 13.031250000000 7.373001098633 211 211 211
22.859375000000 13.046875000000 7.428009033203 131 131 131
22.812500000000 13.015625000000 7.468002319336 41 41 41
22.796875000000 13.015625000000 7.512008666992 115 115 115
22.750000000000 13.296875000000 7.490997314453 130 130 130
22.750000000000 13.296875000000 7.540008544922 12 12 12
22.703125000000 13.578125000000 7.511001586914 141 141 141
22.656250000000 13.890625000000 7.522003173828 129 129 129
22.609375000000 14.187500000000 7.529998779297 130 130 130
22.625000000000 14.546875000000 7.520996093750 66 66 66
22.546875000000 14.484375000000 7.537002563477 124 124 124
22.578125000000 14.546875000000 8.300003051758 28 28 28
22.562500000000 14.546875000000 8.350997924805 86 86 86
22.468750000000 14.562500000000 2.705001831055 200 200 200
22.453125000000 14.578125000000 3.050003051758 28 28 28
22.453125000000 14.578125000000 3.097000122070 84 84 84
22.453125000000 14.578125000000 3.145996093750 113 113 113
22.453125000000 14.578125000000 3.194000244141 120 120 120
22.437500000000 14.578125000000 3.244003295898 133 133 133
22.437500000000 14.578125000000 3.292999267578 136 136 136
22.437500000000 14.578125000000 3.339004516602 151 151 151
22.437500000000 14.578125000000 3.385009765625 159 159 159
22.437500000000 14.578125000000 3.432006835938 167 167 167
22.437500000000 14.578125000000 3.479995727539 182 182 182
22.437500000000 14.578125000000 3.525009155273 184 184 184
22.437500000000 14.578125000000 3.572998046875 181 181 181
22.437500000000 14.578125000000 3.619003295898 185 185 185
22.437500000000 14.593750000000 3.666000366211 181 181 181
22.437500000000 14.593750000000 3.712005615234 177 177 177
22.421875000000 14.578125000000 3.760009765625 181 181 181
22.437500000000 14.593750000000 3.805999755859 183 183 183
22.421875000000 14.593750000000 3.852005004883 185 185 185
22.421875000000 14.593750000000 3.899002075195 191 191 191
22.437500000000 14.609375000000 3.943008422852 193 193 193
22.421875000000 14.593750000000 3.990005493164 186 186 186
22.421875000000 14.593750000000 4.035995483398 192 192 192
22.421875000000 14.593750000000 4.082000732422 200 200 200
22.421875000000 14.593750000000 4.126998901367 195 195 195
22.421875000000 14.593750000000 4.173995971680 197 197 197
22.421875000000 14.609375000000 4.219009399414 192 192 192
22.421875000000 14.609375000000 4.264007568359 202 202 202
22.421875000000 14.609375000000 4.309997558594 203 203 203
22.421875000000 14.609375000000 4.354995727539 201 201 201
22.421875000000 14.609375000000 4.401000976563 197 197 197
22.421875000000 14.609375000000 4.445999145508 201 201 201
22.421875000000 14.609375000000 4.492004394531 202 202 202
22.421875000000 14.609375000000 4.537002563477 196 196 196
22.421875000000 14.609375000000 4.582000732422 196 196 196
22.421875000000 14.625000000000 4.626998901367 205 205 205
22.421875000000 14.625000000000 4.671997070313 208 208 208
22.421875000000 14.625000000000 4.718002319336 200 200 200
22.421875000000 14.625000000000 4.763000488281 205 205 205
22.421875000000 14.625000000000 4.807998657227 206 206 206
22.421875000000 14.625000000000 4.852996826172 211 211 211
22.421875000000 14.640625000000 4.897994995117 204 204 204
22.421875000000 14.640625000000 4.943008422852 209 209 209
22.406250000000 14.640625000000 4.988998413086 206 206 206
22.406250000000 14.640625000000 5.033996582031 205 205 205
22.406250000000 14.640625000000 5.078994750977 210 210 210
22.406250000000 14.640625000000 5.124008178711 208 208 208
22.421875000000 14.640625000000 5.169998168945 209 209 209
22.421875000000 14.640625000000 5.214996337891 209 209 209
22.421875000000 14.640625000000 5.260009765625 207 207 207
22.421875000000 14.656250000000 5.305999755859 188 188 188
22.421875000000 14.656250000000 5.350997924805 202 202 202
22.437500000000 14.656250000000 5.397003173828 203 203 203
22.421875000000 14.656250000000 5.442001342773 201 201 201
22.437500000000 14.671875000000 5.488006591797 200 200 200
22.437500000000 14.671875000000 5.533996582031 199 199 199
22.437500000000 14.671875000000 5.578994750977 196 196 196
22.437500000000 14.671875000000 5.625000000000 193 193 193
22.437500000000 14.671875000000 5.671005249023 190 190 190
22.437500000000 14.671875000000 5.718002319336 192 192 192
22.453125000000 14.687500000000 5.764007568359 191 191 191
22.453125000000 14.687500000000 5.809997558594 177 177 177
22.453125000000 14.687500000000 5.857009887695 170 170 170
22.453125000000 14.687500000000 5.902999877930 174 174 174
22.453125000000 14.687500000000 5.949005126953 166 166 166
22.453125000000 14.687500000000 5.996002197266 158 158 158
22.468750000000 14.703125000000 6.042999267578 152 152 152
22.453125000000 14.703125000000 6.089004516602 152 152 152
22.468750000000 14.703125000000 6.136001586914 157 157 157
22.484375000000 14.718750000000 6.184997558594 148 148 148
22.453125000000 14.703125000000 6.231002807617 137 137 137
22.453125000000 14.703125000000 6.277999877930 137 137 137
22.468750000000 14.718750000000 6.328002929688 107 107 107
22.468750000000 14.718750000000 6.375000000000 88 88 88
22.468750000000 14.734375000000 6.421997070313 36 36 36
23.312500000000 8.656250000000 4.210998535156 74 74 74
23.296875000000 8.671875000000 4.160003662109 116 116 116
23.296875000000 8.671875000000 4.108001708984 138 138 138
23.296875000000 8.671875000000 4.055999755859 154 154 154
23.296875000000 8.687500000000 4.005004882813 167 167 167
23.296875000000 8.703125000000 3.953002929688 180 180 180
23.265625000000 8.703125000000 3.902008056641 165 165 165
23.265625000000 8.703125000000 3.848999023438 180 180 180
23.265625000000 8.703125000000 3.796997070313 192 192 192
23.265625000000 8.703125000000 3.744995117188 196 196 196
23.265625000000 8.718750000000 3.693008422852 195 195 195
23.265625000000 8.703125000000 3.639007568359 203 203 203
23.250000000000 8.718750000000 3.587997436523 201 201 201
23.265625000000 8.734375000000 3.533996582031 208 208 208
23.250000000000 8.734375000000 3.483001708984 208 208 208
23.265625000000 8.734375000000 3.429000854492 208 208 208
