11.312500000000 4.140625000000 10.270004272461 18 18 18
11.281250000000 4.140625000000 10.248001098633 148 148 148
10.625000000000 4.171875000000 10.587997436523 119 119 119
10.593750000000 4.171875000000 10.554000854492 38 38 38
11.703125000000 4.140625000000 9.126998901367 160 160 160
15.453125000000 4.281250000000 9.404998779297 80 80 80
15.453125000000 4.296875000000 8.128005981445 81 81 81
15.437500000000 4.296875000000 8.130996704102 217 217 217
15.406250000000 4.296875000000 8.119995117188 91 91 91
15.031250000000 4.296875000000 9.792007446289 90 90 90
15.000000000000 4.296875000000 9.792007446289 88 88 88
15.046875000000 4.312500000000 8.169006347656 120 120 120
15.031250000000 4.312500000000 8.186004638672 54 54 54
12.656250000000 4.390625000000 10.622009277344 140 140 140
11.312500000000 4.453125000000 10.296997070313 28 28 28
11.296875000000 4.453125000000 10.261001586914 149 149 149
10.656250000000 4.484375000000 10.594009399414 40 40 40
10.625000000000 4.484375000000 10.563995361328 117 117 117
11.687500000000 4.453125000000 9.154998779297 155 155 155
15.453125000000 4.593750000000 9.432998657227 92 92 92
15.437500000000 4.609375000000 8.132995605469 206 206 206
15.421875000000 4.609375000000 8.119003295898 231 231 231
15.015625000000 4.609375000000 9.805007934570 37 37 37
15.062500000000 4.625000000000 8.173004150391 98 98 98
15.046875000000 4.640625000000 8.158004760742 85 85 85
12.671875000000 4.703125000000 10.626007080078 135 135 135
12.640625000000 4.703125000000 10.615997314453 123 123 123
11.296875000000 4.765625000000 10.283004760742 151 151 151
10.609375000000 4.796875000000 10.600006103516 129 129 129
11.703125000000 4.781250000000 9.169998168945 161 161 161
15.437500000000 4.921875000000 9.419998168945 74 74 74
15.453125000000 4.921875000000 8.132995605469 104 104 104
15.437500000000 4.921875000000 8.123001098633 226 226 226
15.015625000000 4.937500000000 9.807006835938 97 97 97
14.984375000000 4.937500000000 9.798995971680 83 83 83
15.015625000000 4.937500000000 8.195007324219 111 111 111
12.656250000000 5.015625000000 10.619995117188 106 106 106
11.296875000000 5.078125000000 10.324005126953 132 132 132
10.625000000000 5.109375000000 10.613006591797 73 73 73
10.593750000000 5.109375000000 10.583999633789 109 109 109
11.718750000000 5.078125000000 9.190002441406 164 164 164
11.687500000000 5.078125000000 9.169006347656 53 53 53
15.453125000000 5.234375000000 9.421997070313 96 96 96
15.468750000000 5.234375000000 8.180999755859 61 61 61
15.453125000000 5.234375000000 8.134002685547 254 254 254
15.421875000000 5.234375000000 8.130996704102 157 157 157
14.984375000000 5.234375000000 9.811004638672 33 33 33
15.031250000000 5.265625000000 8.179000854492 109 109 109
15.015625000000 5.250000000000 8.184005737305 100 100 100
12.671875000000 5.328125000000 10.634002685547 156 156 156
12.640625000000 5.328125000000 10.617004394531 49 49 49
11.328125000000 5.390625000000 10.337997436523 146 146 146
10.609375000000 5.421875000000 10.617996215820 120 120 120
11.718750000000 5.390625000000 9.214004516602 152 152 152
11.703125000000 5.390625000000 9.190002441406 122 122 122
15.453125000000 5.546875000000 9.436996459961 89 89 89
15.453125000000 5.562500000000 8.130004882813 167 167 167
15.421875000000 5.546875000000 8.138000488281 203 203 203
15.000000000000 5.546875000000 9.826004028320 102 102 102
14.968750000000 5.546875000000 9.811996459961 62 62 62
15.031250000000 5.562500000000 8.191009521484 84 84 84
12.671875000000 5.640625000000 10.662002563477 87 87 87
12.640625000000 5.640625000000 10.643005371094 148 148 148
11.328125000000 5.703125000000 10.369995117188 147 147 147
11.281250000000 5.703125000000 10.339996337891 15 15 15
10.625000000000 5.718750000000 10.639007568359 113 113 113
11.718750000000 5.703125000000 9.259002685547 176 176 176
11.703125000000 5.703125000000 9.210006713867 133 133 133
15.437500000000 5.859375000000 9.447998046875 71 71 71
15.453125000000 5.875000000000 8.158004760742 83 83 83
15.437500000000 5.859375000000 8.132995605469 210 210 210
14.984375000000 5.859375000000 9.830001831055 84 84 84
15.031250000000 5.875000000000 8.193008422852 131 131 131
15.015625000000 5.890625000000 8.193008422852 73 73 73
12.656250000000 5.953125000000 10.650009155273 149 149 149
11.328125000000 6.015625000000 10.378997802734 146 146 146
10.625000000000 6.046875000000 10.667007446289 38 38 38
11.734375000000 6.015625000000 9.253005981445 145 145 145
11.687500000000 6.015625000000 9.236999511719 127 127 127
10.562500000000 6.046875000000 10.666000366211 125 125 125
15.437500000000 6.171875000000 9.472000122070 99 99 99
15.421875000000 6.187500000000 8.141006469727 190 190 190
15.421875000000 6.187500000000 8.136001586914 76 76 76
15.000000000000 6.187500000000 9.833999633789 50 50 50
15.046875000000 6.203125000000 8.203994750977 82 82 82
15.031250000000 6.203125000000 8.199005126953 93 93 93
12.656250000000 6.265625000000 10.664001464844 114 114 114
11.328125000000 6.328125000000 10.401000976563 138 138 138
11.734375000000 6.328125000000 9.277008056641 148 148 148
11.703125000000 6.328125000000 9.253005981445 137 137 137
10.562500000000 6.359375000000 10.675003051758 124 124 124
15.453125000000 6.484375000000 9.460998535156 67 67 67
15.421875000000 6.484375000000 9.470001220703 89 89 89
15.437500000000 6.500000000000 8.147994995117 168 168 168
15.421875000000 6.500000000000 8.143997192383 198 198 198
15.000000000000 6.500000000000 9.860000610352 82 82 82
14.984375000000 6.500000000000 9.848007202148 96 96 96
15.015625000000 6.515625000000 8.208999633789 89 89 89
12.671875000000 6.578125000000 10.677001953125 157 157 157
12.625000000000 6.593750000000 10.662002563477 55 55 55
11.328125000000 6.640625000000 10.425994873047 139 139 139
11.312500000000 6.640625000000 10.384002685547 62 62 62
11.703125000000 6.640625000000 9.337005615234 209 209 209
11.718750000000 6.640625000000 9.272003173828 156 156 156
15.437500000000 6.796875000000 9.473999023438 77 77 77
15.453125000000 6.812500000000 8.143997192383 60 60 60
15.421875000000 6.796875000000 8.152008056641 200 200 200
14.984375000000 6.812500000000 9.846008300781 39 39 39
15.031250000000 6.828125000000 8.208007812500 136 136 136
15.015625000000 6.828125000000 8.222000122070 102 102 102
12.671875000000 6.890625000000 10.706008911133 32 32 32
12.640625000000 6.890625000000 10.678009033203 146 146 146
11.359375000000 6.953125000000 10.436996459961 102 102 102
11.312500000000 6.953125000000 10.419998168945 117 117 117
11.750000000000 6.953125000000 9.320007324219 48 48 48
11.718750000000 6.953125000000 9.294006347656 159 159 159
15.453125000000 7.109375000000 9.492996215820 93 93 93
15.421875000000 7.125000000000 8.171997070313 233 233 233
15.406250000000 7.125000000000 8.165008544922 126 126 126
15.000000000000 7.140625000000 9.863998413086 86 86 86
14.968750000000 7.140625000000 9.852005004883 92 92 92
15.015625000000 7.140625000000 8.229003906250 80 80 80
12.656250000000 7.203125000000 10.694000244141 118 118 118
11.375000000000 7.265625000000 10.460998535156 42 42 42
11.328125000000 7.265625000000 10.438003540039 140 140 140
11.734375000000 7.250000000000 9.309005737305 173 173 173
15.421875000000 7.421875000000 9.492004394531 84 84 84
15.437500000000 7.437500000000 8.175003051758 159 159 159
15.406250000000 7.437500000000 8.166000366211 194 194 194
14.984375000000 7.453125000000 9.876998901367 43 43 43
15.031250000000 7.453125000000 8.247009277344 112 112 112
12.671875000000 7.515625000000 10.708999633789 138 138 138
11.359375000000 7.578125000000 10.499008178711 76 76 76
11.328125000000 7.578125000000 10.462005615234 130 130 130
11.734375000000 7.578125000000 9.380004882813 18 18 18
11.718750000000 7.562500000000 9.337005615234 164 164 164
10.562500000000 7.593750000000 10.682006835938 84 84 84
10.578125000000 7.593750000000 10.738998413086 113 113 113
15.437500000000 7.734375000000 9.503997802734 72 72 72
15.437500000000 7.750000000000 8.182006835938 101 101 101
15.421875000000 7.765625000000 8.167999267578 200 200 200
14.984375000000 7.765625000000 9.895004272461 53 53 53
15.015625000000 7.765625000000 8.255996704102 138 138 138
15.015625000000 7.765625000000 8.251007080078 104 104 104
12.687500000000 7.828125000000 10.722000122070 159 159 159
12.656250000000 7.828125000000 10.703994750977 58 58 58
11.359375000000 7.875000000000 10.507003784180 103 103 103
11.328125000000 7.890625000000 10.483001708984 100 100 100
11.734375000000 7.890625000000 9.380996704102 85 85 85
11.718750000000 7.890625000000 9.352005004883 164 164 164
10.562500000000 7.906250000000 10.701004028320 110 110 110
15.453125000000 8.062500000000 9.535995483398 71 71 71
15.453125000000 8.062500000000 8.175003051758 51 51 51
15.421875000000 8.062500000000 8.182998657227 213 213 213
14.984375000000 8.078125000000 9.891998291016 97 97 97
14.953125000000 8.078125000000 9.878005981445 50 50 50
15.015625000000 8.078125000000 8.259002685547 90 90 90
15.000000000000 8.078125000000 8.253005981445 93 93 93
12.687500000000 8.140625000000 10.731002807617 145 145 145
12.640625000000 8.140625000000 10.723999023438 101 101 101
11.359375000000 8.187500000000 10.533004760742 129 129 129
11.328125000000 8.187500000000 10.505996704102 64 64 64
11.750000000000 8.203125000000 9.389007568359 120 120 120
11.718750000000 8.203125000000 9.374008178711 143 143 143
10.546875000000 8.234375000000 10.727996826172 135 135 135
15.453125000000 8.359375000000 9.520996093750 103 103 103
15.437500000000 8.375000000000 8.186996459961 213 213 213
15.421875000000 8.390625000000 8.191009521484 124 124 124
14.953125000000 8.390625000000 9.895996093750 88 88 88
15.000000000000 8.406250000000 8.264007568359 83 83 83
12.703125000000 8.453125000000 10.742004394531 50 50 50
12.671875000000 8.453125000000 10.723007202148 155 155 155
11.375000000000 8.515625000000 10.553009033203 136 136 136
11.343750000000 8.500000000000 10.531997680664 63 63 63
11.734375000000 8.515625000000 9.415008544922 134 134 134
11.718750000000 8.515625000000 9.393997192383 128 128 128
10.562500000000 8.531250000000 10.746002197266 125 125 125
15.468750000000 8.687500000000 9.501007080078 107 107 107
15.421875000000 8.687500000000 9.527008056641 80 80 80
15.421875000000 8.703125000000 8.197998046875 148 148 148
15.406250000000 8.703125000000 8.179000854492 199 199 199
14.968750000000 8.703125000000 9.921005249023 51 51 51
15.000000000000 8.703125000000 8.279998779297 145 145 145
14.984375000000 8.718750000000 8.257995605469 103 103 103
12.671875000000 8.765625000000 10.736007690430 120 120 120
11.390625000000 8.812500000000 10.576995849609 140 140 140
11.343750000000 8.812500000000 10.554000854492 83 83 83
11.750000000000 8.828125000000 9.441009521484 148 148 148
11.718750000000 8.812500000000 9.416000366211 153 153 153
10.578125000000 8.843750000000 10.766006469727 106 106 106
10.531250000000 8.843750000000 10.749008178711 76 76 76
15.437500000000 9.000000000000 9.544006347656 68 68 68
15.437500000000 9.015625000000 8.195999145508 49 49 49
15.421875000000 9.015625000000 8.190002441406 182 182 182
15.078125000000 9.015625000000 9.464996337891 58 58 58
15.046875000000 9.015625000000 9.469009399414 46 46 46
14.984375000000 9.015625000000 9.893997192383 104 104 104
14.953125000000 9.015625000000 9.902999877930 79 79 79
14.921875000000 9.015625000000 9.165008544922 69 69 69
15.015625000000 9.031250000000 8.300994873047 142 142 142
15.000000000000 9.031250000000 8.281005859375 110 110 110
12.687500000000 9.078125000000 10.757995605469 135 135 135
11.375000000000 9.125000000000 10.600006103516 119 119 119
11.343750000000 9.125000000000 10.578002929688 83 83 83
11.765625000000 9.125000000000 9.449996948242 133 133 133
11.734375000000 9.140625000000 9.438003540039 133 133 133
10.562500000000 9.156250000000 10.762008666992 129 129 129
15.437500000000 9.312500000000 9.548995971680 91 91 91
15.437500000000 9.328125000000 8.191009521484 53 53 53
15.421875000000 9.328125000000 8.206008911133 231 231 231
15.406250000000 9.328125000000 8.197006225586 135 135 135
14.937500000000 9.328125000000 9.945007324219 70 70 70
14.984375000000 9.343750000000 8.303009033203 85 85 85
12.687500000000 9.406250000000 10.768997192383 149 149 149
12.656250000000 9.390625000000 10.757003784180 68 68 68
11.390625000000 9.437500000000 10.615005493164 125 125 125
11.343750000000 9.437500000000 10.598007202148 69 69 69
11.734375000000 9.453125000000 9.482009887695 158 158 158
11.734375000000 9.437500000000 9.447006225586 91 91 91
10.562500000000 9.468750000000 10.790008544922 125 125 125
15.453125000000 9.640625000000 9.570999145508 101 101 101
15.421875000000 9.640625000000 8.197998046875 254 254 254
15.390625000000 9.656250000000 8.197998046875 197 197 197
14.953125000000 9.640625000000 9.960998535156 37 37 37
15.000000000000 9.656250000000 8.305007934570 128 128 128
14.968750000000 9.656250000000 8.292999267578 59 59 59
12.687500000000 9.703125000000 10.783004760742 147 147 147
12.656250000000 9.703125000000 10.766998291016 72 72 72
11.375000000000 9.765625000000 10.647003173828 143 143 143
11.750000000000 9.765625000000 9.492996215820 175 175 175
10.546875000000 9.765625000000 10.807998657227 126 126 126
15.453125000000 9.937500000000 9.583999633789 106 106 106
15.421875000000 9.953125000000 8.199005126953 170 170 170
15.390625000000 9.953125000000 8.192001342773 221 221 221
14.968750000000 9.968750000000 9.960998535156 62 62 62
15.000000000000 9.984375000000 8.305007934570 140 140 140
14.984375000000 9.984375000000 8.291000366211 115 115 115
12.703125000000 10.015625000000 10.791000366211 142 142 142
12.671875000000 10.031250000000 10.770004272461 92 92 92
11.375000000000 10.078125000000 10.660995483398 132 132 132
11.750000000000 10.078125000000 9.514999389648 152 152 152
10.546875000000 10.093750000000 10.816009521484 126 126 126
15.421875000000 10.265625000000 9.580001831055 93 93 93
15.421875000000 10.281250000000 8.207000732422 76 76 76
15.390625000000 10.265625000000 8.195007324219 178 178 178
14.968750000000 10.281250000000 9.977005004883 67 67 67
14.937500000000 10.281250000000 9.955001831055 94 94 94
14.984375000000 10.296875000000 8.309997558594 76 76 76
12.703125000000 10.343750000000 10.798004150391 78 78 78
12.671875000000 10.343750000000 10.787002563477 143 143 143
11.375000000000 10.390625000000 10.686004638672 130 130 130
11.750000000000 10.390625000000 9.539001464844 153 153 153
10.546875000000 10.406250000000 10.841995239258 110 110 110
10.500000000000 10.406250000000 10.822998046875 59 59 59
15.437500000000 10.578125000000 9.615005493164 72 72 72
15.406250000000 10.593750000000 8.197998046875 209 209 209
15.390625000000 10.593750000000 8.201995849609 41 41 41
14.953125000000 10.593750000000 9.977005004883 44 44 44
14.984375000000 10.609375000000 8.330001831055 133 133 133
14.968750000000 10.609375000000 8.322006225586 73 73 73
12.687500000000 10.656250000000 10.800003051758 122 122 122
11.390625000000 10.703125000000 10.710998535156 132 132 132
11.750000000000 10.687500000000 9.548995971680 153 153 153
10.531250000000 10.734375000000 10.839004516602 129 129 129
15.453125000000 10.890625000000 9.610000610352 96 96 96
15.421875000000 10.890625000000 9.613006591797 67 67 67
15.421875000000 10.906250000000 8.214996337891 215 215 215
15.390625000000 10.906250000000 8.203994750977 194 194 194
14.953125000000 10.906250000000 9.977996826172 90 90 90
14.937500000000 10.906250000000 9.973999023438 80 80 80
14.984375000000 10.921875000000 8.328994750977 99 99 99
14.968750000000 10.921875000000 8.339996337891 104 104 104
12.703125000000 10.968750000000 10.822998046875 138 138 138
12.656250000000 10.968750000000 10.805007934570 16 16 16
11.406250000000 11.000000000000 10.735000610352 151 151 151
11.359375000000 11.000000000000 10.720001220703 15 15 15
11.750000000000 11.000000000000 9.576995849609 153 153 153
10.531250000000 11.015625000000 10.865997314453 139 139 139
15.468750000000 11.203125000000 9.622009277344 23 23 23
15.437500000000 11.203125000000 9.635009765625 94 94 94
15.421875000000 11.218750000000 8.208999633789 116 116 116
15.390625000000 11.218750000000 8.201004028320 182 182 182
14.937500000000 11.218750000000 9.999008178711 92 92 92
14.984375000000 11.234375000000 8.331008911133 71 71 71
12.703125000000 11.281250000000 10.848999023438 142 142 142
12.671875000000 11.281250000000 10.820999145508 70 70 70
11.390625000000 11.312500000000 10.759002685547 147 147 147
11.734375000000 11.328125000000 9.608001708984 168 168 168
10.546875000000 11.328125000000 10.893005371094 131 131 131
10.515625000000 11.328125000000 10.858001708984 36 36 36
15.421875000000 11.515625000000 9.635009765625 86 86 86
15.421875000000 11.531250000000 8.214004516602 100 100 100
15.390625000000 11.531250000000 8.206008911133 184 184 184
14.937500000000 11.531250000000 10.003005981445 75 75 75
14.968750000000 11.546875000000 8.363998413086 83 83 83
12.703125000000 11.593750000000 10.854003906250 142 142 142
12.671875000000 11.593750000000 10.833007812500 62 62 62
11.390625000000 11.625000000000 10.785003662109 122 122 122
11.765625000000 11.640625000000 9.650009155273 96 96 96
11.734375000000 11.640625000000 9.626998901367 157 157 157
10.546875000000 11.656250000000 10.902999877930 116 116 116
10.500000000000 11.671875000000 10.884002685547 51 51 51
15.437500000000 11.828125000000 9.649002075195 72 72 72
15.421875000000 11.859375000000 8.223007202148 73 73 73
15.406250000000 11.859375000000 8.214996337891 172 172 172
14.937500000000 11.859375000000 10.007003784180 47 47 47
14.953125000000 11.859375000000 8.350997924805 93 93 93
12.703125000000 11.906250000000 10.863006591797 143 143 143
12.671875000000 11.906250000000 10.848999023438 75 75 75
11.406250000000 11.953125000000 10.805007934570 133 133 133
11.765625000000 11.953125000000 9.665008544922 152 152 152
11.750000000000 11.953125000000 9.639007568359 91 91 91
10.546875000000 11.984375000000 10.923995971680 79 79 79
10.515625000000 11.984375000000 10.891006469727 101 101 101
15.453125000000 12.156250000000 9.656997680664 88 88 88
15.406250000000 12.171875000000 8.214004516602 164 164 164
14.953125000000 12.171875000000 10.026000976563 75 75 75
14.906250000000 12.171875000000 10.022994995117 84 84 84
14.968750000000 12.171875000000 8.369995117188 141 141 141
14.937500000000 12.171875000000 8.367996215820 114 114 114
12.718750000000 12.234375000000 10.876007080078 51 51 51
12.687500000000 12.234375000000 10.861007690430 145 145 145
11.390625000000 12.265625000000 10.828994750977 124 124 124
11.765625000000 12.265625000000 9.693008422852 154 154 154
11.750000000000 12.265625000000 9.667007446289 98 98 98
10.515625000000 12.281250000000 10.923995971680 131 131 131
15.453125000000 12.468750000000 9.663009643555 71 71 71
15.421875000000 12.468750000000 9.695007324219 80 80 80
15.421875000000 12.484375000000 8.242004394531 217 217 217
15.390625000000 12.484375000000 8.227005004883 73 73 73
14.921875000000 12.484375000000 10.035995483398 68 68 68
14.953125000000 12.484375000000 8.376998901367 93 93 93
12.687500000000 12.531250000000 10.878997802734 139 139 139
11.406250000000 12.578125000000 10.863006591797 124 124 124
11.781250000000 12.578125000000 9.712005615234 123 123 123
11.750000000000 12.578125000000 9.688995361328 131 131 131
10.531250000000 12.593750000000 10.957000732422 124 124 124
10.484375000000 12.593750000000 10.934997558594 29 29 29
15.437500000000 12.796875000000 9.693008422852 73 73 73
15.390625000000 12.796875000000 8.227005004883 207 207 207
15.375000000000 12.796875000000 8.234008789063 189 189 189
14.937500000000 12.796875000000 10.053009033203 81 81 81
14.968750000000 12.812500000000 8.387008666992 74 74 74
12.703125000000 12.843750000000 10.904006958008 143 143 143
11.421875000000 12.875000000000 10.876998901367 131 131 131
11.781250000000 12.875000000000 9.742004394531 150 150 150
11.765625000000 12.875000000000 9.712005615234 110 110 110
10.515625000000 12.890625000000 10.988006591797 23 23 23
10.515625000000 12.890625000000 10.943008422852 126 126 126
15.421875000000 13.093750000000 9.707000732422 62 62 62
15.406250000000 13.109375000000 8.225997924805 147 147 147
15.375000000000 13.109375000000 8.229995727539 183 183 183
14.953125000000 13.109375000000 10.057006835938 54 54 54
14.921875000000 13.109375000000 10.070007324219 87 87 87
14.968750000000 13.125000000000 8.417007446289 108 108 108
12.703125000000 13.171875000000 10.914001464844 146 146 146
12.671875000000 13.171875000000 10.891998291016 58 58 58
11.421875000000 13.187500000000 10.895996093750 110 110 110
11.781250000000 13.203125000000 9.757003784180 156 156 156
11.750000000000 13.203125000000 9.742996215820 60 60 60
10.484375000000 13.203125000000 10.964004516602 123 123 123
15.406250000000 13.421875000000 8.234008789063 199 199 199
15.390625000000 13.437500000000 8.233001708984 194 194 194
14.953125000000 13.421875000000 10.069000244141 58 58 58
14.921875000000 13.421875000000 10.068008422852 80 80 80
14.953125000000 13.437500000000 8.408996582031 87 87 87
12.703125000000 13.484375000000 10.932006835938 146 146 146
11.437500000000 13.515625000000 10.951004028320 72 72 72
11.406250000000 13.515625000000 10.925003051758 120 120 120
11.750000000000 13.515625000000 9.781997680664 160 160 160
10.484375000000 13.531250000000 10.997009277344 125 125 125
15.406250000000 13.750000000000 8.240997314453 107 107 107
15.390625000000 13.734375000000 8.236007690430 185 185 185
14.921875000000 13.750000000000 10.089004516602 75 75 75
14.953125000000 13.765625000000 8.429000854492 133 133 133
14.937500000000 13.765625000000 8.423995971680 92 92 92
12.718750000000 13.796875000000 10.932006835938 139 139 139
12.671875000000 13.796875000000 10.930999755859 70 70 70
11.437500000000 13.828125000000 10.977996826172 88 88 88
11.406250000000 13.828125000000 10.951004028320 125 125 125
11.781250000000 13.828125000000 9.837997436523 16 16 16
11.750000000000 13.828125000000 9.807998657227 165 165 165
10.484375000000 13.843750000000 11.009002685547 118 118 118
15.390625000000 14.046875000000 8.240997314453 176 176 176
14.921875000000 14.062500000000 10.113998413086 42 42 42
14.968750000000 14.078125000000 8.417999267578 116 116 116
14.953125000000 14.078125000000 8.412002563477 121 121 121
12.734375000000 14.109375000000 10.949996948242 101 101 101
12.687500000000 14.093750000000 10.934005737305 126 126 126
11.468750000000 14.140625000000 10.988006591797 84 84 84
11.421875000000 14.140625000000 10.979995727539 117 117 117
11.781250000000 14.140625000000 9.861007690430 32 32 32
11.765625000000 14.140625000000 9.831008911133 155 155 155
10.500000000000 14.156250000000 11.038009643555 130 130 130
15.390625000000 14.375000000000 8.257003784180 167 167 167
14.937500000000 14.375000000000 10.091003417969 41 41 41
14.906250000000 14.375000000000 10.104003906250 81 81 81
14.953125000000 14.390625000000 8.442001342773 82 82 82
12.703125000000 14.421875000000 10.960006713867 128 128 128
11.437500000000 14.437500000000 11.007995605469 133 133 133
11.765625000000 14.453125000000 9.857009887695 163 163 163
10.500000000000 14.453125000000 11.080001831055 21 21 21
10.453125000000 14.468750000000 11.041000366211 128 128 128
14.921875000000 14.687500000000 10.119003295898 71 71 71
14.953125000000 14.703125000000 8.460006713867 84 84 84
12.703125000000 14.734375000000 10.983001708984 132 132 132
11.484375000000 14.750000000000 11.059997558594 31 31 31
11.421875000000 14.750000000000 11.031997680664 141 141 141
11.796875000000 14.765625000000 9.904998779297 78 78 78
11.750000000000 14.765625000000 9.886001586914 145 145 145
10.468750000000 14.781250000000 11.067001342773 127 127 127
14.906250000000 15.015625000000 10.147003173828 64 64 64
14.937500000000 15.015625000000 8.473999023438 107 107 107
14.921875000000 15.031250000000 8.469009399414 32 32 32
12.718750000000 15.046875000000 10.996002197266 133 133 133
11.453125000000 15.062500000000 11.081008911133 135 135 135
11.421875000000 15.078125000000 11.046997070313 52 52 52
11.796875000000 15.078125000000 9.921997070313 146 146 146
11.765625000000 15.078125000000 9.902999877930 68 68 68
10.468750000000 15.093750000000 11.097000122070 133 133 133
14.906250000000 15.312500000000 10.158996582031 48 48 48
14.937500000000 15.328125000000 8.483001708984 118 118 118
14.921875000000 15.328125000000 8.484008789063 53 53 53
12.718750000000 15.359375000000 11.014999389648 124 124 124
11.453125000000 15.390625000000 11.094009399414 119 119 119
11.781250000000 15.390625000000 9.960998535156 153 153 153
10.468750000000 15.421875000000 11.108001708984 124 124 124
14.921875000000 15.640625000000 10.165008544922 78 78 78
14.890625000000 15.640625000000 10.162002563477 30 30 30
14.937500000000 15.640625000000 8.498001098633 124 124 124
14.921875000000 15.640625000000 8.488998413086 84 84 84
12.703125000000 15.671875000000 11.016006469727 124 124 124
11.453125000000 15.703125000000 11.124008178711 118 118 118
11.781250000000 15.703125000000 9.966995239258 141 141 141
10.468750000000 15.718750000000 11.137008666992 103 103 103
11.468750000000 16.015625000000 11.141006469727 127 127 127
10.406250000000 16.656250000000 11.147994995117 127 127 127
12.671875000000 16.937500000000 11.046997070313 130 130 130
11.406250000000 16.953125000000 11.151000976563 126 126 126
11.734375000000 16.953125000000 9.981002807617 150 150 150
10.406250000000 16.968750000000 11.163009643555 104 104 104
10.359375000000 16.968750000000 11.152999877930 31 31 31
14.890625000000 17.218750000000 8.550994873047 123 123 123
14.875000000000 17.234375000000 8.542007446289 91 91 91
12.671875000000 17.250000000000 11.044998168945 73 73 73
12.640625000000 17.250000000000 11.029006958008 140 140 140
11.406250000000 17.265625000000 11.163009643555 95 95 95
11.359375000000 17.265625000000 11.135009765625 97 97 97
11.703125000000 17.265625000000 9.964996337891 146 146 146
10.359375000000 17.281250000000 11.156005859375 123 123 123
15.296875000000 17.515625000000 9.747009277344 74 74 74
15.265625000000 17.531250000000 8.281997680664 80 80 80
15.234375000000 17.531250000000 8.272003173828 254 254 254
15.218750000000 17.531250000000 8.268005371094 106 106 106
14.812500000000 17.515625000000 10.195999145508 65 65 65
14.843750000000 17.546875000000 8.546005249023 130 130 130
14.828125000000 17.531250000000 8.544006347656 109 109 109
12.640625000000 17.562500000000 11.044006347656 122 122 122
12.609375000000 17.562500000000 11.022994995117 103 103 103
11.375000000000 17.578125000000 11.154998779297 119 119 119
11.328125000000 17.578125000000 11.130004882813 57 57 57
11.687500000000 17.593750000000 9.942001342773 144 144 144
10.343750000000 17.593750000000 11.132003784180 121 121 121
15.265625000000 17.828125000000 9.742004394531 54 54 54
15.218750000000 17.859375000000 8.281005859375 254 254 254
15.203125000000 17.843750000000 8.275009155273 254 254 254
14.765625000000 17.843750000000 10.171997070313 49 49 49
14.812500000000 17.859375000000 8.546005249023 57 57 57
14.796875000000 17.859375000000 8.544998168945 92 92 92
12.625000000000 17.875000000000 11.031005859375 109 109 109
12.578125000000 17.875000000000 11.022994995117 107 107 107
11.359375000000 17.890625000000 11.134002685547 112 112 112
11.312500000000 17.890625000000 11.123001098633 75 75 75
11.671875000000 17.890625000000 9.930999755859 150 150 150
10.312500000000 17.906250000000 11.132995605469 120 120 120
15.250000000000 18.156250000000 9.729995727539 68 68 68
15.203125000000 18.171875000000 8.268005371094 160 160 160
15.187500000000 18.171875000000 8.257003784180 226 226 226
14.703125000000 18.171875000000 10.162002563477 47 47 47
14.734375000000 18.171875000000 8.566009521484 74 74 74
12.593750000000 18.171875000000 11.029998779297 117 117 117
12.562500000000 18.187500000000 11.031005859375 101 101 101
11.328125000000 18.203125000000 11.141006469727 108 108 108
11.296875000000 18.203125000000 11.108001708984 82 82 82
11.640625000000 18.203125000000 9.925994873047 148 148 148
10.312500000000 18.218750000000 11.108001708984 123 123 123
15.218750000000 18.453125000000 9.718002319336 62 62 62
15.187500000000 18.484375000000 8.285995483398 121 121 121
15.171875000000 18.484375000000 8.262008666992 206 206 206
14.687500000000 18.484375000000 10.156005859375 32 32 32
14.656250000000 18.484375000000 10.130004882813 90 90 90
14.703125000000 18.484375000000 8.576995849609 81 81 81
12.578125000000 18.500000000000 11.026000976563 142 142 142
11.296875000000 18.515625000000 11.136001586914 137 137 137
11.609375000000 18.515625000000 9.916000366211 157 157 157
10.296875000000 18.515625000000 11.141998291016 10 10 10
10.265625000000 18.515625000000 11.107009887695 112 112 112
15.203125000000 18.781250000000 9.712005615234 77 77 77
15.156250000000 18.796875000000 8.272994995117 136 136 136
15.140625000000 18.796875000000 8.268005371094 214 214 214
14.640625000000 18.796875000000 10.119003295898 51 51 51
14.656250000000 18.796875000000 8.572006225586 81 81 81
12.531250000000 18.812500000000 11.020996093750 134 134 134
11.265625000000 18.828125000000 11.106002807617 118 118 118
11.625000000000 18.843750000000 9.912002563477 50 50 50
11.593750000000 18.843750000000 9.891998291016 151 151 151
10.265625000000 18.843750000000 11.107009887695 112 112 112
15.187500000000 19.093750000000 9.684997558594 59 59 59
15.156250000000 19.093750000000 9.699996948242 90 90 90
15.140625000000 19.109375000000 8.272003173828 155 155 155
15.109375000000 19.109375000000 8.270004272461 214 214 214
14.562500000000 19.109375000000 10.102996826172 85 85 85
14.609375000000 19.125000000000 8.604003906250 70 70 70
14.593750000000 19.125000000000 8.578002929688 92 92 92
12.531250000000 19.125000000000 11.022003173828 103 103 103
12.500000000000 19.125000000000 10.999008178711 103 103 103
11.250000000000 19.140625000000 11.121002197266 101 101 101
11.218750000000 19.156250000000 11.096008300781 92 92 92
11.593750000000 19.156250000000 9.900009155273 130 130 130
11.578125000000 19.156250000000 9.874008178711 97 97 97
10.234375000000 19.156250000000 11.100006103516 124 124 124
15.406250000000 0.156250000000 9.313995361328 113 113 113
15.421875000000 0.125000000000 8.091003417969 65 65 65
15.406250000000 0.125000000000 8.074996948242 186 186 186
15.421875000000 0.484375000000 9.304000854492 111 111 111
15.421875000000 0.453125000000 8.078002929688 199 199 199
15.406250000000 0.437500000000 8.072998046875 92 92 92
15.390625000000 0.796875000000 9.320007324219 107 107 107
15.437500000000 0.765625000000 8.097000122070 60 60 60
15.406250000000 0.750000000000 8.087997436523 185 185 185
15.406250000000 1.109375000000 9.337005615234 108 108 108
15.421875000000 1.078125000000 8.091003417969 206 206 206
15.390625000000 1.078125000000 8.104995727539 98 98 98
15.421875000000 1.437500000000 9.344009399414 62 62 62
15.390625000000 1.421875000000 9.337997436523 105 105 105
15.421875000000 1.390625000000 8.119003295898 52 52 52
15.406250000000 1.390625000000 8.100006103516 178 178 178
15.390625000000 1.375000000000 8.123001098633 83 83 83
15.390625000000 1.734375000000 9.345001220703 96 96 96
15.421875000000 1.703125000000 8.106002807617 171 171 171
15.390625000000 1.687500000000 8.104995727539 48 48 48
15.406250000000 2.046875000000 9.356002807617 112 112 112
15.421875000000 2.015625000000 8.102996826172 176 176 176
15.406250000000 2.015625000000 8.100997924805 139 139 139
15.421875000000 2.375000000000 9.363998413086 96 96 96
15.390625000000 2.359375000000 9.367004394531 94 94 94
15.421875000000 2.328125000000 8.109008789063 161 161 161
15.406250000000 2.687500000000 9.369003295898 101 101 101
15.421875000000 2.656250000000 8.097000122070 199 199 199
15.406250000000 2.640625000000 8.098007202148 168 168 168
15.421875000000 3.000000000000 9.376007080078 100 100 100
15.406250000000 2.984375000000 9.380996704102 82 82 82
15.406250000000 2.953125000000 8.104995727539 185 185 185
15.406250000000 3.328125000000 9.384002685547 51 51 51
15.390625000000 3.312500000000 9.389999389648 100 100 100
15.406250000000 3.265625000000 8.111007690430 199 199 199
15.390625000000 3.265625000000 8.117996215820 83 83 83
15.390625000000 3.640625000000 9.391998291016 106 106 106
15.421875000000 3.593750000000 8.106002807617 189 189 189
15.406250000000 3.578125000000 8.100997924805 194 194 194
15.406250000000 3.953125000000 9.404006958008 110 110 110
15.406250000000 3.921875000000 8.115997314453 55 55 55
15.390625000000 3.906250000000 8.124008178711 186 186 186
15.421875000000 4.265625000000 9.419998168945 70 70 70
15.390625000000 4.265625000000 9.402008056641 96 96 96
15.406250000000 4.234375000000 8.117004394531 222 222 222
15.390625000000 4.218750000000 8.119003295898 119 119 119
15.390625000000 4.578125000000 9.413009643555 98 98 98
15.406250000000 4.546875000000 8.136001586914 175 175 175
15.390625000000 4.546875000000 8.121002197266 209 209 209
15.406250000000 4.906250000000 9.421005249023 94 94 94
15.390625000000 4.890625000000 9.410995483398 83 83 83
15.406250000000 4.859375000000 8.117996215820 205 205 205
15.390625000000 4.859375000000 8.134002685547 71 71 71
15.406250000000 5.218750000000 9.425003051758 103 103 103
15.421875000000 5.171875000000 8.134002685547 252 252 252
15.406250000000 5.171875000000 8.132003784180 179 179 179
15.406250000000 5.531250000000 9.434997558594 97 97 97
15.406250000000 5.484375000000 8.132995605469 245 245 245
15.390625000000 5.484375000000 8.123001098633 234 234 234
15.406250000000 5.859375000000 9.453994750977 99 99 99
15.421875000000 5.812500000000 8.154998779297 179 179 179
15.406250000000 5.812500000000 8.139999389648 252 252 252
15.390625000000 5.796875000000 8.126998901367 48 48 48
15.421875000000 6.171875000000 9.466003417969 83 83 83
15.390625000000 6.156250000000 9.457000732422 96 96 96
15.421875000000 6.140625000000 8.150009155273 77 77 77
15.406250000000 6.125000000000 8.121002197266 252 252 252
15.390625000000 6.109375000000 8.134002685547 155 155 155
15.390625000000 6.484375000000 9.471008300781 97 97 97
15.390625000000 6.437500000000 8.147003173828 252 252 252
15.390625000000 6.421875000000 8.139007568359 252 252 252
15.406250000000 6.796875000000 9.490005493164 114 114 114
15.406250000000 6.765625000000 8.162002563477 145 145 145
15.390625000000 6.750000000000 8.149002075195 252 252 252
15.359375000000 6.734375000000 8.156005859375 95 95 95
15.406250000000 7.125000000000 9.498001098633 103 103 103
15.390625000000 7.109375000000 9.488006591797 78 78 78
15.390625000000 7.078125000000 8.156997680664 236 236 236
15.375000000000 7.062500000000 8.158996582031 120 120 120
15.406250000000 7.437500000000 9.503997802734 80 80 80
15.390625000000 7.421875000000 9.498001098633 88 88 88
15.406250000000 7.390625000000 8.152008056641 252 252 252
15.375000000000 7.375000000000 8.160003662109 171 171 171
15.421875000000 7.765625000000 9.512008666992 55 55 55
15.390625000000 7.750000000000 9.505996704102 110 110 110
15.390625000000 7.703125000000 8.175994873047 252 252 252
15.390625000000 7.703125000000 8.167999267578 230 230 230
15.406250000000 8.078125000000 9.520996093750 105 105 105
15.390625000000 8.015625000000 8.178009033203 221 221 221
15.375000000000 8.015625000000 8.180999755859 252 252 252
15.359375000000 8.015625000000 8.180999755859 57 57 57
15.406250000000 8.390625000000 9.533996582031 109 109 109
15.406250000000 8.359375000000 8.180007934570 38 38 38
15.390625000000 8.343750000000 8.184997558594 241 241 241
15.375000000000 8.328125000000 8.173995971680 127 127 127
15.421875000000 8.718750000000 9.488998413086 125 125 125
15.390625000000 8.703125000000 9.533004760742 79 79 79
15.390625000000 8.671875000000 8.837997436523 60 60 60
15.359375000000 8.671875000000 8.804000854492 73 73 73
15.406250000000 8.671875000000 8.182006835938 252 252 252
15.375000000000 8.656250000000 8.179000854492 201 201 201
15.421875000000 9.046875000000 9.554000854492 106 106 106
15.406250000000 9.031250000000 9.540008544922 82 82 82
15.390625000000 8.984375000000 8.186004638672 210 210 210
15.390625000000 8.984375000000 8.180007934570 185 185 185
15.156250000000 8.890625000000 9.205001831055 116 116 116
15.406250000000 9.359375000000 9.561996459961 96 96 96
15.390625000000 9.359375000000 9.557006835938 88 88 88
15.390625000000 9.296875000000 8.186996459961 252 252 252
15.375000000000 9.296875000000 8.182998657227 233 233 233
14.984375000000 9.140625000000 9.738998413086 58 58 58
14.937500000000 9.109375000000 9.835998535156 90 90 90
15.406250000000 9.687500000000 9.576004028320 47 47 47
15.375000000000 9.671875000000 9.578002929688 115 115 115
15.390625000000 9.609375000000 8.191009521484 202 202 202
15.359375000000 9.609375000000 8.180999755859 252 252 252
15.359375000000 9.609375000000 8.188995361328 77 77 77
14.906250000000 9.421875000000 9.932998657227 99 99 99
15.390625000000 9.984375000000 9.580001831055 100 100 100
15.390625000000 9.953125000000 8.199996948242 110 110 110
15.375000000000 9.937500000000 8.182998657227 252 252 252
15.359375000000 9.921875000000 8.194000244141 160 160 160
14.921875000000 9.734375000000 9.942001342773 69 69 69
15.406250000000 10.312500000000 9.597000122070 107 107 107
15.390625000000 10.296875000000 9.594009399414 68 68 68
15.375000000000 10.250000000000 8.197006225586 252 252 252
15.359375000000 10.234375000000 8.188003540039 252 252 252
14.906250000000 10.046875000000 9.945999145508 96 96 96
15.406250000000 10.640625000000 9.608001708984 67 67 67
15.390625000000 10.625000000000 9.604003906250 109 109 109
15.375000000000 10.562500000000 8.199996948242 252 252 252
15.359375000000 10.562500000000 8.190002441406 252 252 252
15.343750000000 10.546875000000 8.197998046875 61 61 61
14.906250000000 10.375000000000 9.957000732422 103 103 103
15.406250000000 10.953125000000 9.625000000000 57 57 57
15.390625000000 10.953125000000 9.626007080078 110 110 110
15.390625000000 10.890625000000 8.203994750977 252 252 252
15.359375000000 10.875000000000 8.197006225586 252 252 252
15.343750000000 10.859375000000 8.192001342773 39 39 39
14.906250000000 10.687500000000 9.969009399414 91 91 91
14.890625000000 10.671875000000 9.969009399414 66 66 66
15.421875000000 11.281250000000 9.647994995117 35 35 35
15.390625000000 11.265625000000 9.636001586914 117 117 117
15.390625000000 11.203125000000 8.214996337891 249 249 249
15.375000000000 11.203125000000 8.201995849609 252 252 252
14.921875000000 11.015625000000 9.990997314453 47 47 47
14.890625000000 11.000000000000 9.969009399414 102 102 102
15.390625000000 11.593750000000 9.639007568359 109 109 109
15.375000000000 11.531250000000 8.214996337891 233 233 233
15.359375000000 11.515625000000 8.210998535156 226 226 226
14.890625000000 11.328125000000 9.986999511719 107 107 107
15.406250000000 11.921875000000 9.654998779297 106 106 106
15.390625000000 11.859375000000 8.225997924805 112 112 112
15.375000000000 11.843750000000 8.212005615234 223 223 223
15.343750000000 11.828125000000 8.223007202148 76 76 76
14.890625000000 11.656250000000 10.003005981445 103 103 103
15.406250000000 12.234375000000 9.654006958008 83 83 83
15.390625000000 12.218750000000 9.660995483398 93 93 93
15.375000000000 12.156250000000 8.214004516602 214 214 214
15.359375000000 12.140625000000 8.216003417969 132 132 132
14.875000000000 11.953125000000 10.020004272461 110 110 110
15.406250000000 12.546875000000 9.691009521484 64 64 64
15.406250000000 12.546875000000 9.680007934570 107 107 107
15.390625000000 12.484375000000 8.227005004883 206 206 206
15.359375000000 12.468750000000 8.227005004883 127 127 127
14.875000000000 12.265625000000 10.035003662109 105 105 105
15.406250000000 12.875000000000 9.706008911133 84 84 84
15.390625000000 12.859375000000 9.692001342773 87 87 87
15.375000000000 12.812500000000 8.240005493164 49 49 49
15.359375000000 12.796875000000 8.227005004883 191 191 191
15.343750000000 12.796875000000 8.236007690430 69 69 69
14.890625000000 12.609375000000 10.035003662109 102 102 102
15.406250000000 13.203125000000 9.714004516602 81 81 81
15.375000000000 13.187500000000 9.707000732422 91 91 91
15.375000000000 13.140625000000 8.248001098633 70 70 70
15.359375000000 13.125000000000 8.233001708984 197 197 197
14.875000000000 12.921875000000 10.037002563477 100 100 100
15.406250000000 13.515625000000 9.729995727539 69 69 69
15.390625000000 13.515625000000 9.716003417969 97 97 97
15.359375000000 13.453125000000 8.257003784180 85 85 85
15.359375000000 13.437500000000 8.231002807617 199 199 199
14.875000000000 13.250000000000 10.066009521484 111 111 111
15.390625000000 13.828125000000 9.740997314453 106 106 106
15.359375000000 13.765625000000 8.238006591797 170 170 170
15.359375000000 13.750000000000 8.248001098633 80 80 80
14.875000000000 13.546875000000 10.061996459961 109 109 109
15.390625000000 14.156250000000 9.735000610352 100 100 100
15.375000000000 14.140625000000 9.736007690430 33 33 33
15.359375000000 14.078125000000 8.242004394531 197 197 197
15.343750000000 14.078125000000 8.240005493164 163 163 163
14.859375000000 13.859375000000 10.091995239258 109 109 109
15.406250000000 14.484375000000 9.768997192383 99 99 99
15.375000000000 14.468750000000 9.757003784180 68 68 68
15.375000000000 14.406250000000 8.251007080078 186 186 186
15.359375000000 14.390625000000 8.240997314453 157 157 157
14.875000000000 14.203125000000 10.107009887695 101 101 101
15.421875000000 14.796875000000 9.761001586914 96 96 96
15.359375000000 14.718750000000 8.259002685547 156 156 156
15.359375000000 14.718750000000 8.248001098633 51 51 51
14.875000000000 14.515625000000 10.130004882813 112 112 112
15.406250000000 15.125000000000 9.779998779297 105 105 105
15.359375000000 15.046875000000 8.253005981445 170 170 170
14.875000000000 14.843750000000 10.135009765625 112 112 112
15.406250000000 15.437500000000 9.798995971680 101 101 101
15.375000000000 15.421875000000 9.794998168945 52 52 52
15.390625000000 15.375000000000 8.274002075195 39 39 39
15.359375000000 15.359375000000 8.264007568359 174 174 174
14.859375000000 15.156250000000 10.134002685547 67 67 67
14.828125000000 15.140625000000 10.135009765625 71 71 71
14.843750000000 15.468750000000 10.147003173828 107 107 107
15.265625000000 17.296875000000 9.768997192383 101 101 101
15.234375000000 17.609375000000 9.742996215820 100 100 100
15.203125000000 17.531250000000 8.257995605469 217 217 217
15.187500000000 17.515625000000 8.279006958008 130 130 130
14.781250000000 17.359375000000 10.199005126953 110 110 110
15.218750000000 17.921875000000 9.732009887695 99 99 99
15.203125000000 17.921875000000 9.731002807617 49 49 49
15.187500000000 17.843750000000 8.266998291016 247 247 247
15.171875000000 17.828125000000 8.251998901367 230 230 230
14.734375000000 17.656250000000 10.178009033203 94 94 94
15.203125000000 18.234375000000 9.729003906250 96 96 96
15.171875000000 18.140625000000 8.266998291016 236 236 236
15.156250000000 18.140625000000 8.262008666992 252 252 252
14.687500000000 17.953125000000 10.163009643555 100 100 100
15.171875000000 18.531250000000 9.727005004883 102 102 102
15.156250000000 18.468750000000 8.262008666992 217 217 217
15.140625000000 18.453125000000 8.270996093750 252 252 252
15.125000000000 18.437500000000 8.251998901367 45 45 45
14.656250000000 18.265625000000 10.151000976563 98 98 98
15.140625000000 18.843750000000 9.712997436523 97 97 97
15.125000000000 18.781250000000 8.266998291016 210 210 210
15.109375000000 18.765625000000 8.259002685547 252 252 252
15.093750000000 18.750000000000 8.264999389648 81 81 81
15.125000000000 19.156250000000 9.708007812500 100 100 100
15.109375000000 19.078125000000 8.270004272461 84 84 84
15.078125000000 19.078125000000 8.270004272461 252 252 252
15.062500000000 19.062500000000 8.263000488281 114 114 114
15.437500000000 0.281250000000 8.074996948242 164 164 164
15.453125000000 0.265625000000 8.078994750977 99 99 99
15.437500000000 0.234375000000 9.311996459961 86 86 86
15.453125000000 0.218750000000 9.316009521484 113 113 113
15.437500000000 0.593750000000 8.087997436523 48 48 48
15.453125000000 0.578125000000 8.083999633789 156 156 156
15.453125000000 0.531250000000 9.309997558594 98 98 98
15.437500000000 0.890625000000 8.089004516602 169 169 169
15.453125000000 0.890625000000 8.087997436523 147 147 147
15.421875000000 0.859375000000 9.320999145508 57 57 57
15.468750000000 0.843750000000 9.319000244141 129 129 129
15.421875000000 1.218750000000 8.091003417969 60 60 60
15.453125000000 1.203125000000 8.091995239258 164 164 164
15.437500000000 1.156250000000 9.335006713867 104 104 104
15.437500000000 1.531250000000 8.096008300781 163 163 163
15.453125000000 1.515625000000 8.104003906250 123 123 123
15.437500000000 1.484375000000 9.350006103516 47 47 47
15.453125000000 1.484375000000 9.331008911133 126 126 126
15.453125000000 1.843750000000 8.113006591797 159 159 159
15.453125000000 1.796875000000 9.352005004883 95 95 95
15.468750000000 1.796875000000 9.348007202148 81 81 81
15.437500000000 2.171875000000 8.111999511719 128 128 128
15.453125000000 2.156250000000 8.100997924805 177 177 177
15.453125000000 2.109375000000 9.352996826172 101 101 101
15.453125000000 2.484375000000 8.115997314453 165 165 165
15.468750000000 2.468750000000 8.115005493164 72 72 72
15.468750000000 2.421875000000 9.363006591797 121 121 121
15.421875000000 2.796875000000 8.111999511719 88 88 88
15.453125000000 2.781250000000 8.104003906250 172 172 172
15.437500000000 2.734375000000 9.369995117188 101 101 101
15.453125000000 2.718750000000 9.380996704102 91 91 91
15.421875000000 3.109375000000 8.113998413086 178 178 178
15.453125000000 3.093750000000 8.124008178711 100 100 100
15.437500000000 3.046875000000 9.387008666992 108 108 108
15.421875000000 3.421875000000 8.117996215820 51 51 51
15.437500000000 3.421875000000 8.121002197266 174 174 174
15.437500000000 3.359375000000 9.380004882813 70 70 70
15.453125000000 3.359375000000 9.378997802734 125 125 125
15.421875000000 3.734375000000 8.117996215820 155 155 155
15.437500000000 3.718750000000 8.115005493164 190 190 190
15.437500000000 3.671875000000 9.388000488281 95 95 95
15.468750000000 3.656250000000 9.401000976563 77 77 77
15.437500000000 4.046875000000 8.111007690430 183 183 183
15.453125000000 4.031250000000 8.130996704102 137 137 137
15.453125000000 3.984375000000 9.389999389648 96 96 96
15.437500000000 4.359375000000 8.128997802734 194 194 194
15.453125000000 4.281250000000 9.408004760742 120 120 120
15.421875000000 4.671875000000 8.117996215820 173 173 173
15.453125000000 4.656250000000 8.115997314453 203 203 203
15.437500000000 4.609375000000 9.419998168945 102 102 102
15.453125000000 4.593750000000 9.429000854492 86 86 86
15.437500000000 4.984375000000 8.132003784180 209 209 209
15.437500000000 4.968750000000 8.147994995117 93 93 93
15.453125000000 4.921875000000 9.417007446289 101 101 101
15.421875000000 5.296875000000 8.143005371094 109 109 109
15.437500000000 5.281250000000 8.139007568359 218 218 218
15.437500000000 5.234375000000 9.434005737305 63 63 63
15.468750000000 5.234375000000 9.421997070313 120 120 120
15.437500000000 5.609375000000 8.130004882813 197 197 197
15.453125000000 5.609375000000 8.147003173828 236 236 236
15.453125000000 5.546875000000 9.445007324219 99 99 99
15.468750000000 5.531250000000 9.443008422852 85 85 85
15.000000000000 5.796875000000 9.833007812500 61 61 61
15.437500000000 5.921875000000 8.147003173828 223 223 223
15.453125000000 5.906250000000 8.138000488281 229 229 229
15.453125000000 5.859375000000 9.457000732422 106 106 106
15.421875000000 6.234375000000 8.149002075195 226 226 226
15.437500000000 6.218750000000 8.158996582031 101 101 101
15.453125000000 6.156250000000 9.456008911133 108 108 108
14.984375000000 6.421875000000 9.844009399414 98 98 98
15.406250000000 6.546875000000 8.152008056641 165 165 165
15.421875000000 6.546875000000 8.147994995117 248 248 248
15.421875000000 6.484375000000 9.457000732422 85 85 85
15.453125000000 6.468750000000 9.475997924805 112 112 112
14.984375000000 6.734375000000 9.845001220703 27 27 27
