26.375000000000 18.875000000000 4.306000709534 185 185 185
26.359375000000 18.875000000000 4.402998924255 106 106 106
26.375000000000 18.875000000000 4.501999855042 64 64 64
26.390625000000 18.875000000000 4.599999427795 198 198 198
26.390625000000 18.875000000000 4.699999809265 167 167 167
26.484375000000 18.812500000000 3.636000633240 14 14 14
26.359375000000 18.687500000000 4.109999656677 120 120 120
26.375000000000 18.687500000000 4.207999229431 147 147 147
26.390625000000 18.687500000000 4.304999351501 169 169 169
26.406250000000 18.750000000000 4.599999427795 99 99 99
26.421875000000 18.750000000000 4.699999809265 183 183 183
26.421875000000 18.750000000000 4.799000740051 179 179 179
26.375000000000 18.562500000000 4.106999397278 106 106 106
26.406250000000 18.562500000000 4.206000328064 196 196 196
26.421875000000 18.562500000000 4.695000648499 116 116 116
26.453125000000 18.625000000000 4.800000190735 150 150 150
26.656250000000 10.500000000000 3.277998924255 32 32 32
26.656250000000 10.500000000000 3.362999916077 75 75 75
26.593750000000 10.437500000000 3.949999809265 149 149 149
26.593750000000 10.500000000000 4.035000801086 180 180 180
26.593750000000 10.500000000000 4.120999336243 182 182 182
26.593750000000 10.500000000000 4.376000404358 99 99 99
26.609375000000 10.500000000000 4.463999748230 159 159 159
26.625000000000 10.500000000000 4.551999092102 161 161 161
26.687500000000 10.375000000000 3.022999763489 15 15 15
26.656250000000 10.375000000000 3.109000205994 161 161 161
26.703125000000 10.437500000000 3.192000389099 135 135 135
26.718750000000 10.437500000000 3.276999473572 144 144 144
26.671875000000 10.375000000000 3.362000465393 137 137 137
26.718750000000 10.437500000000 3.447999000549 166 166 166
26.703125000000 10.437500000000 3.532999992371 38 38 38
26.625000000000 10.312500000000 4.036000251770 173 173 173
26.625000000000 10.312500000000 4.120999336243 182 182 182
26.625000000000 10.312500000000 4.206000328064 181 181 181
26.609375000000 10.312500000000 4.289999961853 103 103 103
26.640625000000 10.312500000000 4.379000663757 160 160 160
26.640625000000 10.375000000000 4.466000556946 166 166 166
26.578125000000 10.187500000000 1.668999671936 141 141 141
26.578125000000 10.187500000000 1.756999969482 130 130 130
26.562500000000 10.187500000000 1.845999717712 112 112 112
26.578125000000 10.187500000000 1.931000709534 110 110 110
26.562500000000 10.187500000000 2.020998954773 102 102 102
26.562500000000 10.187500000000 2.103999137878 96 96 96
26.546875000000 10.125000000000 2.193999290466 92 92 92
26.546875000000 10.125000000000 2.279999732971 91 91 91
26.531250000000 10.125000000000 2.366000175476 106 106 106
26.531250000000 10.125000000000 2.450999259949 103 103 103
26.531250000000 10.125000000000 2.533999443054 94 94 94
26.546875000000 10.125000000000 2.616000175476 89 89 89
26.531250000000 10.125000000000 2.699999809265 89 89 89
26.515625000000 10.125000000000 2.785000801086 86 86 86
26.531250000000 10.125000000000 2.866000175476 91 91 91
26.531250000000 10.125000000000 2.949999809265 114 114 114
26.515625000000 10.125000000000 3.032999992371 121 121 121
26.546875000000 10.125000000000 3.113999366760 130 130 130
26.546875000000 10.125000000000 3.196999549866 106 106 106
26.578125000000 10.187500000000 3.279000282288 98 98 98
26.578125000000 10.187500000000 3.362000465393 98 98 98
26.625000000000 10.187500000000 3.446000099182 132 132 132
26.609375000000 10.187500000000 3.529999732971 106 106 106
26.531250000000 10.125000000000 3.609000205994 59 59 59
26.531250000000 10.125000000000 3.692000389099 68 68 68
26.546875000000 10.125000000000 3.776000022888 52 52 52
26.640625000000 10.187500000000 4.122000694275 178 178 178
26.640625000000 10.187500000000 4.206999778748 177 177 177
26.640625000000 10.187500000000 4.290999412537 176 176 176
26.656250000000 10.187500000000 4.380000114441 166 166 166
26.765625000000 10.187500000000 2.846999168396 125 125 125
26.781250000000 10.187500000000 2.932000160217 172 172 172
26.765625000000 10.187500000000 3.019000053406 180 180 180
26.765625000000 10.187500000000 3.105000495911 151 151 151
26.687500000000 10.062500000000 3.192999839783 134 134 134
26.687500000000 10.062500000000 3.276999473572 143 143 143
26.765625000000 10.125000000000 3.362000465393 128 128 128
26.734375000000 10.125000000000 3.446999549866 146 146 146
26.671875000000 10.062500000000 3.529999732971 102 102 102
26.656250000000 10.062500000000 3.612999916077 82 82 82
26.640625000000 10.062500000000 3.696999549866 89 89 89
26.640625000000 10.062500000000 3.780999183655 92 92 92
26.640625000000 10.062500000000 3.865000724792 119 119 119
26.640625000000 10.062500000000 3.949999809265 104 104 104
26.640625000000 10.062500000000 4.033999443054 116 116 116
26.656250000000 10.062500000000 4.119999885559 128 128 128
26.656250000000 10.062500000000 4.204998970032 143 143 143
26.656250000000 10.062500000000 4.289999961853 125 125 125
26.656250000000 10.062500000000 4.376000404358 125 125 125
26.656250000000 10.062500000000 4.460999488831 117 117 117
26.640625000000 10.062500000000 4.544999122620 122 122 122
26.656250000000 10.062500000000 4.631999015808 23 23 23
26.812500000000 10.062500000000 2.932000160217 127 127 127
26.812500000000 10.062500000000 3.018000602722 143 143 143
26.796875000000 10.000000000000 3.103999137878 171 171 171
26.796875000000 10.000000000000 3.189999580383 172 172 172
26.781250000000 10.000000000000 3.276000022888 139 139 139
26.765625000000 10.000000000000 3.362000465393 164 164 164
26.812500000000 10.062500000000 3.447999000549 143 143 143
26.828125000000 10.062500000000 3.533999443054 35 35 35
26.703125000000 9.937500000000 4.039000511169 131 131 131
26.718750000000 9.937500000000 4.126000404358 185 185 185
26.718750000000 9.937500000000 4.210999488831 184 184 184
26.703125000000 9.937500000000 4.296000480652 185 185 185
26.703125000000 9.937500000000 4.381999015808 181 181 181
26.703125000000 9.937500000000 4.467999458313 14 14 14
26.843750000000 9.937500000000 3.102999687195 120 120 120
26.859375000000 9.937500000000 3.189000129700 151 151 151
26.843750000000 9.937500000000 3.275000572205 152 152 152
26.859375000000 9.937500000000 3.362000465393 155 155 155
26.859375000000 9.937500000000 3.447999000549 161 161 161
26.734375000000 9.812500000000 3.953999519348 139 139 139
26.750000000000 9.812500000000 4.040999412537 187 187 187
26.750000000000 9.812500000000 4.127999305725 187 187 187
26.734375000000 9.812500000000 4.296999931335 143 143 143
26.734375000000 9.812500000000 4.383999824524 187 187 187
26.750000000000 9.812500000000 4.470999717712 185 185 185
26.750000000000 9.687500000000 3.869000434875 128 128 128
26.765625000000 9.687500000000 3.956000328064 187 187 187
26.781250000000 9.687500000000 4.043000221252 181 181 181
26.781250000000 9.687500000000 4.386000633240 171 171 171
26.781250000000 9.687500000000 4.473999977112 181 181 181
26.781250000000 9.687500000000 4.560999870300 178 178 178
26.812500000000 9.562500000000 3.870999336243 130 130 130
26.812500000000 9.562500000000 3.956999778748 179 179 179
26.796875000000 9.562500000000 4.473000526428 199 199 199
26.812500000000 9.562500000000 4.561999320984 178 178 178
26.796875000000 9.562500000000 4.647000312805 82 82 82
26.250000000000 19.625000000000 4.782000541687 137 137 137
26.265625000000 19.625000000000 4.685000419617 196 196 196
26.265625000000 19.625000000000 4.588000297546 34 34 34
26.265625000000 19.687500000000 4.200999259949 137 137 137
26.250000000000 19.687500000000 4.103999137878 136 136 136
26.250000000000 19.687500000000 4.008000373840 59 59 59
26.281250000000 19.500000000000 4.685999870300 130 130 130
26.281250000000 19.500000000000 4.588999748230 135 135 135
26.281250000000 19.500000000000 4.297999382019 126 126 126
26.281250000000 19.500000000000 4.202000617981 137 137 137
26.265625000000 19.500000000000 4.105000495911 130 130 130
26.453125000000 19.437500000000 3.727000236511 16 16 16
26.453125000000 19.437500000000 3.629000663757 69 69 69
26.453125000000 19.437500000000 3.532000541687 64 64 64
26.453125000000 19.437500000000 3.433999061584 44 44 44
26.453125000000 19.312500000000 5.008999824524 89 89 89
26.281250000000 19.375000000000 4.683999061584 69 69 69
26.296875000000 19.375000000000 4.588000297546 136 136 136
26.296875000000 19.375000000000 4.491000175476 143 143 143
26.296875000000 19.375000000000 4.393000602722 123 123 123
26.296875000000 19.375000000000 4.296999931335 133 133 133
26.296875000000 19.375000000000 4.200999259949 135 135 135
26.437500000000 19.312500000000 3.726000785828 71 71 71
26.421875000000 19.312500000000 3.627999305725 39 39 39
26.390625000000 19.375000000000 3.530999183655 35 35 35
26.421875000000 19.312500000000 3.433999061584 63 63 63
26.390625000000 19.375000000000 3.338000297546 12 12 12
26.437500000000 19.312500000000 3.240000724792 39 39 39
26.171875000000 19.312500000000 5.049000740051 59 59 59
26.312500000000 19.250000000000 4.977999687195 92 92 92
26.281250000000 19.250000000000 4.874999046326 73 73 73
26.328125000000 19.250000000000 4.588999748230 148 148 148
26.343750000000 19.250000000000 4.492999076843 156 156 156
26.328125000000 19.250000000000 4.394999504089 153 153 153
26.328125000000 19.250000000000 4.297999382019 143 143 143
26.453125000000 19.187500000000 3.726000785828 65 65 65
26.453125000000 19.187500000000 3.627999305725 71 71 71
26.437500000000 19.187500000000 3.530999183655 61 61 61
26.390625000000 19.187500000000 3.435000419617 82 82 82
26.421875000000 19.187500000000 3.338000297546 89 89 89
26.437500000000 19.187500000000 3.240000724792 137 137 137
26.421875000000 19.187500000000 3.144000053406 110 110 110
26.171875000000 19.187500000000 5.043999671936 100 100 100
26.171875000000 19.187500000000 4.947999000549 89 89 89
26.250000000000 19.125000000000 4.865000724792 88 88 88
26.218750000000 19.125000000000 4.762000083923 148 148 148
26.203125000000 19.125000000000 4.664000511169 146 146 146
26.203125000000 19.125000000000 4.568999290466 145 145 145
26.203125000000 19.187500000000 4.473000526428 154 154 154
26.203125000000 19.125000000000 4.379000663757 162 162 162
26.203125000000 19.187500000000 4.282999992371 163 163 163
26.203125000000 19.187500000000 4.188000679016 171 171 171
26.203125000000 19.187500000000 4.092999458313 168 168 168
26.187500000000 19.187500000000 3.998999595642 168 168 168
26.187500000000 19.187500000000 3.904999732971 140 140 140
26.203125000000 19.187500000000 3.810999870300 126 126 126
26.218750000000 19.187500000000 3.717999458313 137 137 137
26.234375000000 19.125000000000 3.623999595642 154 154 154
26.265625000000 19.125000000000 3.529999732971 178 178 178
26.265625000000 19.125000000000 3.435999870300 211 211 211
26.265625000000 19.125000000000 3.341000556946 229 229 229
26.296875000000 19.125000000000 3.245999336243 239 239 239
26.281250000000 19.125000000000 3.151000022888 209 209 209
26.265625000000 19.125000000000 3.057000160217 194 194 194
26.281250000000 19.125000000000 2.960999488831 186 186 186
26.281250000000 19.125000000000 2.866000175476 179 179 179
26.281250000000 19.125000000000 2.770998954773 173 173 173
26.281250000000 19.125000000000 2.675000190735 164 164 164
26.265625000000 19.125000000000 2.579998970032 141 141 141
26.250000000000 19.125000000000 2.487000465393 114 114 114
26.250000000000 19.125000000000 2.391999244690 95 95 95
26.234375000000 19.187500000000 2.296999931335 46 46 46
26.281250000000 19.000000000000 5.061999320984 122 122 122
26.390625000000 18.937500000000 4.688000679016 105 105 105
26.375000000000 18.937500000000 4.588999748230 137 137 137
26.375000000000 18.937500000000 4.491000175476 145 145 145
26.359375000000 18.937500000000 4.391999244690 193 193 193
26.359375000000 18.937500000000 4.294999122620 184 184 184
26.437500000000 18.937500000000 3.721999168396 63 63 63
26.375000000000 18.937500000000 3.623999595642 47 47 47
26.343750000000 19.000000000000 3.529000282288 36 36 36
26.296875000000 19.000000000000 3.433999061584 66 66 66
26.234375000000 19.000000000000 3.339999198914 78 78 78
26.156250000000 19.062500000000 3.248999595642 67 67 67
26.140625000000 19.062500000000 3.155999183655 67 67 67
26.140625000000 19.062500000000 3.063000679016 69 69 69
26.140625000000 19.062500000000 2.970999717712 82 82 82
26.140625000000 19.062500000000 2.877999305725 90 90 90
26.125000000000 19.062500000000 2.785000801086 117 117 117
26.125000000000 19.062500000000 2.692000389099 134 134 134
26.140625000000 19.062500000000 2.598000526428 147 147 147
26.125000000000 19.062500000000 2.504000663757 169 169 169
26.109375000000 19.062500000000 2.412999153137 170 170 170
26.109375000000 19.062500000000 2.318999290466 175 175 175
26.109375000000 19.062500000000 2.223999977112 176 176 176
26.109375000000 19.062500000000 2.130000114441 170 170 170
26.109375000000 19.062500000000 2.035000801086 170 170 170
26.125000000000 19.062500000000 1.935999870300 152 152 152
26.109375000000 19.062500000000 1.649999618530 173 173 173
26.109375000000 19.062500000000 1.553999900818 161 161 161
26.109375000000 19.062500000000 1.456000328064 148 148 148
26.421875000000 18.812500000000 4.785000801086 89 89 89
26.406250000000 18.812500000000 4.685000419617 131 131 131
26.406250000000 18.812500000000 4.588000297546 177 177 177
26.375000000000 18.812500000000 4.390000343323 42 42 42
26.375000000000 18.812500000000 4.293999671936 193 193 193
26.375000000000 18.812500000000 4.196999549866 174 174 174
26.437500000000 18.812500000000 3.623000144958 61 61 61
26.437500000000 18.812500000000 3.526000022888 63 63 63
26.421875000000 18.625000000000 4.879000663757 95 95 95
26.437500000000 18.625000000000 4.780999183655 130 130 130
26.437500000000 18.625000000000 4.682999610901 130 130 130
26.390625000000 18.687500000000 4.289999961853 156 156 156
26.390625000000 18.687500000000 4.192000389099 157 157 157
26.390625000000 18.687500000000 4.095999717712 122 122 122
26.406250000000 18.500000000000 4.189000129700 157 157 157
26.593750000000 10.562500000000 4.671999931335 107 107 107
26.609375000000 10.562500000000 4.586998939514 143 143 143
26.593750000000 10.562500000000 4.498999595642 145 145 145
26.562500000000 10.625000000000 4.067999839783 118 118 118
26.578125000000 10.625000000000 3.984000205994 147 147 147
26.562500000000 10.625000000000 3.900000572205 140 140 140
26.609375000000 10.437500000000 4.581999778748 107 107 107
26.609375000000 10.437500000000 4.495999336243 151 151 151
26.625000000000 10.437500000000 4.411000251770 151 151 151
26.593750000000 10.437500000000 4.151999473572 104 104 104
26.593750000000 10.437500000000 4.067000389099 145 145 145
26.593750000000 10.437500000000 3.981999397278 150 150 150
26.703125000000 10.437500000000 3.478999137878 131 131 131
26.718750000000 10.437500000000 3.394000053406 126 126 126
26.718750000000 10.437500000000 3.307999610901 128 128 128
26.718750000000 10.437500000000 3.223000526428 111 111 111
26.687500000000 10.437500000000 3.138998985291 92 92 92
26.718750000000 10.437500000000 3.051999092102 15 15 15
26.640625000000 10.312500000000 4.494000434875 111 111 111
26.656250000000 10.312500000000 4.410000801086 150 150 150
26.625000000000 10.312500000000 4.321000099182 147 147 147
26.625000000000 10.312500000000 4.234999656677 104 104 104
26.625000000000 10.312500000000 4.148999214172 141 141 141
26.625000000000 10.312500000000 4.064000129700 146 146 146
26.750000000000 10.250000000000 3.476000785828 123 123 123
26.718750000000 10.312500000000 3.390999794006 90 90 90
26.687500000000 10.312500000000 3.306000709534 112 112 112
26.687500000000 10.312500000000 3.220999717712 171 171 171
26.734375000000 10.312500000000 3.134999275208 157 157 157
26.750000000000 10.250000000000 3.047999382019 122 122 122
26.750000000000 10.250000000000 2.961998939514 122 122 122
26.734375000000 10.312500000000 2.876999855042 98 98 98
26.656250000000 10.187500000000 4.404999732971 96 96 96
26.656250000000 10.187500000000 4.318999290466 122 122 122
26.656250000000 10.187500000000 4.233000755310 138 138 138
26.656250000000 10.187500000000 4.147999763489 143 143 143
26.640625000000 10.187500000000 3.808999061584 14 14 14
26.640625000000 10.187500000000 3.723999977112 28 28 28
26.640625000000 10.187500000000 3.640000343323 51 51 51
26.640625000000 10.187500000000 3.556000709534 56 56 56
26.703125000000 10.187500000000 3.473000526428 157 157 157
26.687500000000 10.187500000000 3.387999534607 113 113 113
26.609375000000 10.187500000000 3.304999351501 96 96 96
26.656250000000 10.187500000000 3.220000267029 112 112 112
26.609375000000 10.187500000000 3.137999534607 107 107 107
26.687500000000 10.187500000000 3.050000190735 124 124 124
26.687500000000 10.187500000000 2.966000556946 141 141 141
26.656250000000 10.187500000000 2.881999015808 118 118 118
26.609375000000 10.187500000000 2.803000450134 79 79 79
26.609375000000 10.187500000000 2.717999458313 88 88 88
26.609375000000 10.187500000000 2.634999275208 98 98 98
26.609375000000 10.187500000000 2.550000190735 101 101 101
26.609375000000 10.187500000000 2.464999198914 109 109 109
26.593750000000 10.187500000000 2.381999015808 117 117 117
26.593750000000 10.187500000000 2.297999382019 129 129 129
26.578125000000 10.250000000000 2.213999748230 141 141 141
26.593750000000 10.187500000000 2.126999855042 143 143 143
26.593750000000 10.250000000000 2.042000770569 142 142 142
26.578125000000 10.250000000000 1.784999847412 138 138 138
26.562500000000 10.250000000000 1.698999404907 128 128 128
26.578125000000 10.250000000000 1.611000061035 134 134 134
26.562500000000 10.250000000000 1.526000022888 138 138 138
26.562500000000 10.250000000000 1.434000015259 122 122 122
26.593750000000 10.062500000000 4.560000419617 97 97 97
26.578125000000 10.062500000000 4.473000526428 90 90 90
26.578125000000 10.062500000000 4.388998985291 92 92 92
26.578125000000 10.062500000000 4.303000450134 91 91 91
26.578125000000 10.062500000000 4.220000267029 92 92 92
26.562500000000 10.062500000000 4.133999824524 121 121 121
26.578125000000 10.062500000000 4.050999641418 108 108 108
26.562500000000 10.062500000000 3.967000007629 98 98 98
26.562500000000 10.062500000000 3.883000373840 107 107 107
26.562500000000 10.062500000000 3.800000190735 84 84 84
26.546875000000 10.062500000000 3.717000007629 101 101 101
26.562500000000 10.062500000000 3.633999824524 107 107 107
26.546875000000 10.062500000000 3.550999641418 100 100 100
26.593750000000 10.062500000000 3.470000267029 126 126 126
26.593750000000 10.062500000000 3.386000633240 107 107 107
26.593750000000 10.062500000000 3.303000450134 105 105 105
26.609375000000 10.062500000000 3.220000267029 116 116 116
26.578125000000 10.062500000000 3.137999534607 103 103 103
26.609375000000 10.062500000000 3.053000450134 114 114 114
26.531250000000 10.125000000000 2.973999977112 70 70 70
26.546875000000 10.125000000000 2.890999794006 66 66 66
26.531250000000 10.125000000000 2.808999061584 63 63 63
26.515625000000 10.125000000000 2.727999687195 61 61 61
26.515625000000 10.125000000000 2.645998954773 65 65 65
26.515625000000 10.125000000000 2.563000679016 61 61 61
26.531250000000 10.125000000000 2.477999687195 45 45 45
26.531250000000 10.125000000000 2.393000602722 26 26 26
26.718750000000 9.875000000000 4.404999732971 136 136 136
26.718750000000 9.875000000000 4.318999290466 137 137 137
26.718750000000 9.875000000000 4.233000755310 60 60 60
26.734375000000 9.875000000000 4.148999214172 140 140 140
26.734375000000 9.875000000000 4.063000679016 138 138 138
26.750000000000 9.875000000000 3.978999137878 35 35 35
26.875000000000 9.812500000000 3.383999824524 79 79 79
26.875000000000 9.812500000000 3.296999931335 95 95 95
26.875000000000 9.812500000000 3.210999488831 41 41 41
26.765625000000 9.750000000000 4.494999885559 134 134 134
26.765625000000 9.750000000000 4.407000541687 130 130 130
26.765625000000 9.750000000000 4.321000099182 61 61 61
26.765625000000 9.750000000000 4.064000129700 140 140 140
26.781250000000 9.750000000000 3.978999137878 142 142 142
26.765625000000 9.750000000000 3.893000602722 75 75 75
26.796875000000 9.562500000000 4.582999229431 124 124 124
26.812500000000 9.562500000000 4.497000694275 176 176 176
26.796875000000 9.562500000000 4.407999992371 89 89 89
26.796875000000 9.562500000000 3.978999137878 144 144 144
26.796875000000 9.562500000000 3.893000602722 182 182 182
26.796875000000 9.562500000000 3.807999610901 19 19 19
26.218750000000 19.812500000000 4.671000480652 73 73 73
26.265625000000 19.625000000000 4.761000633240 223 223 223
26.265625000000 19.625000000000 4.675000190735 224 224 224
26.265625000000 19.625000000000 4.589999198914 191 191 191
26.265625000000 19.625000000000 4.251000404358 39 39 39
26.250000000000 19.625000000000 4.164999961853 231 231 231
26.265625000000 19.625000000000 4.081000328064 236 236 236
26.250000000000 19.625000000000 3.997000694275 194 194 194
26.296875000000 19.500000000000 4.766999244690 30 30 30
26.296875000000 19.500000000000 4.678000450134 228 228 228
26.281250000000 19.500000000000 4.589999198914 228 228 228
26.281250000000 19.500000000000 4.504000663757 140 140 140
26.281250000000 19.500000000000 4.335000038147 105 105 105
26.281250000000 19.500000000000 4.249999046326 230 230 230
26.281250000000 19.500000000000 4.165999412537 235 235 235
26.265625000000 19.500000000000 4.081000328064 205 205 205
26.312500000000 19.375000000000 5.026999473572 130 130 130
26.312500000000 19.375000000000 4.675999641418 162 162 162
26.312500000000 19.375000000000 4.589999198914 227 227 227
26.296875000000 19.375000000000 4.504000663757 230 230 230
26.312500000000 19.375000000000 4.421000480652 167 167 167
26.312500000000 19.375000000000 4.335000038147 226 226 226
26.312500000000 19.375000000000 4.251000404358 235 235 235
26.296875000000 19.375000000000 4.164999961853 171 171 171
26.437500000000 19.375000000000 3.758000373840 10 10 10
26.453125000000 19.375000000000 3.672999382019 94 94 94
26.421875000000 19.375000000000 3.586998939514 83 83 83
26.437500000000 19.375000000000 3.504000663757 131 131 131
26.421875000000 19.375000000000 3.418999671936 82 82 82
26.406250000000 19.375000000000 3.334000587463 101 101 101
26.109375000000 19.187500000000 5.051999092102 60 60 60
26.234375000000 19.187500000000 4.999999046326 108 108 108
26.187500000000 19.187500000000 4.900000572205 129 129 129
26.312500000000 19.250000000000 4.845000267029 94 94 94
26.328125000000 19.250000000000 4.589999198914 206 206 206
26.328125000000 19.250000000000 4.502999305725 230 230 230
26.328125000000 19.250000000000 4.418000221252 235 235 235
26.328125000000 19.250000000000 4.334000587463 230 230 230
26.328125000000 19.250000000000 4.249999046326 119 119 119
26.437500000000 19.250000000000 3.755000114441 82 82 82
26.437500000000 19.250000000000 3.669999122620 90 90 90
26.296875000000 19.250000000000 3.578999519348 149 149 149
26.375000000000 19.250000000000 3.498999595642 92 92 92
26.343750000000 19.250000000000 3.414999961853 107 107 107
26.421875000000 19.250000000000 3.332999229431 108 108 108
26.437500000000 19.250000000000 3.248999595642 95 95 95
26.437500000000 19.250000000000 3.164999961853 169 169 169
26.156250000000 19.062500000000 5.058999061584 36 36 36
26.296875000000 19.062500000000 5.008000373840 116 116 116
26.203125000000 19.062500000000 4.897999763489 117 117 117
26.265625000000 19.062500000000 4.827000617981 154 154 154
26.265625000000 19.062500000000 4.740000724792 146 146 146
26.250000000000 19.062500000000 4.651999473572 49 49 49
26.343750000000 19.062500000000 4.585000038147 197 197 197
26.328125000000 19.062500000000 4.497000694275 204 204 204
26.312500000000 19.062500000000 4.410000801086 198 198 198
26.281250000000 19.062500000000 4.321000099182 187 187 187
26.281250000000 19.062500000000 4.237000465393 169 169 169
26.218750000000 19.062500000000 4.144000053406 83 83 83
26.203125000000 19.062500000000 4.060000419617 106 106 106
26.203125000000 19.062500000000 3.977999687195 109 109 109
26.187500000000 19.062500000000 3.894000053406 114 114 114
26.187500000000 19.062500000000 3.813000679016 122 122 122
26.187500000000 19.062500000000 3.730999946594 136 136 136
26.187500000000 19.062500000000 3.650000572205 145 145 145
26.171875000000 19.062500000000 3.567999839783 160 160 160
26.171875000000 19.062500000000 3.487999916077 166 166 166
26.156250000000 19.062500000000 3.405999183655 172 172 172
26.156250000000 19.062500000000 3.325999259949 188 188 188
26.156250000000 19.062500000000 3.244999885559 199 199 199
26.156250000000 19.062500000000 3.164000511169 223 223 223
26.171875000000 19.062500000000 3.084000587463 255 255 255
26.140625000000 19.062500000000 3.004000663757 255 255 255
26.125000000000 19.062500000000 2.924000740051 255 255 255
26.140625000000 19.062500000000 2.842000007629 255 255 255
26.140625000000 19.062500000000 2.762000083923 255 255 255
26.140625000000 19.062500000000 2.681000709534 255 255 255
26.140625000000 19.062500000000 2.599999427795 252 252 252
26.125000000000 19.062500000000 2.519999504089 230 230 230
26.125000000000 19.062500000000 2.439999580383 224 224 224
26.109375000000 19.062500000000 2.359000205994 221 221 221
26.109375000000 19.062500000000 2.277998924255 212 212 212
26.109375000000 19.062500000000 2.196999549866 215 215 215
26.109375000000 19.062500000000 2.116000175476 207 207 207
26.109375000000 19.062500000000 2.033999443054 200 200 200
26.093750000000 19.062500000000 1.449999809265 169 169 169
26.359375000000 18.937500000000 5.015000343323 98 98 98
26.375000000000 18.937500000000 4.671000480652 209 209 209
26.375000000000 18.937500000000 4.584000587463 220 220 220
26.375000000000 18.937500000000 4.498999595642 220 220 220
26.359375000000 18.937500000000 4.411999702454 229 229 229
26.359375000000 18.937500000000 4.324999809265 229 229 229
26.359375000000 18.937500000000 4.241999626160 235 235 235
26.437500000000 18.937500000000 3.744999885559 90 90 90
26.421875000000 18.937500000000 3.660000801086 122 122 122
26.390625000000 18.937500000000 3.574000358582 79 79 79
26.390625000000 18.937500000000 3.491000175476 99 99 99
26.437500000000 18.937500000000 3.408999443054 89 89 89
26.437500000000 18.937500000000 3.324999809265 91 91 91
26.437500000000 18.937500000000 3.241999626160 96 96 96
26.437500000000 18.937500000000 3.157999992371 43 43 43
26.406250000000 18.812500000000 4.756999015808 212 212 212
26.406250000000 18.812500000000 4.668999671936 219 219 219
26.390625000000 18.812500000000 4.581999778748 219 219 219
26.375000000000 18.812500000000 4.322999000549 230 230 230
26.375000000000 18.812500000000 4.237999916077 224 224 224
26.359375000000 18.812500000000 4.151999473572 229 229 229
26.421875000000 18.812500000000 3.655999183655 92 92 92
26.421875000000 18.812500000000 3.572999000549 91 91 91
26.453125000000 18.812500000000 3.490000724792 93 93 93
26.453125000000 18.812500000000 3.405999183655 9 9 9
26.437500000000 18.687500000000 4.842999458313 216 216 216
26.421875000000 18.687500000000 4.752999305725 217 217 217
26.421875000000 18.687500000000 4.665999412537 221 221 221
26.406250000000 18.687500000000 4.234999656677 220 220 220
26.390625000000 18.687500000000 4.150000572205 243 243 243
26.375000000000 18.687500000000 4.064999580383 212 212 212
26.421875000000 18.500000000000 4.234000205994 128 128 128
26.406250000000 18.500000000000 4.147999763489 89 89 89
26.578125000000 10.687500000000 4.527998924255 207 207 207
26.562500000000 10.687500000000 4.001999855042 246 246 246
26.546875000000 10.687500000000 3.926999092102 200 200 200
26.609375000000 10.500000000000 4.606999397278 203 203 203
26.609375000000 10.500000000000 4.529999732971 214 214 214
26.609375000000 10.500000000000 4.453000068665 212 212 212
26.593750000000 10.500000000000 4.074999809265 240 240 240
26.593750000000 10.500000000000 4.001000404358 238 238 238
26.578125000000 10.500000000000 3.925999641418 233 233 233
26.640625000000 10.375000000000 4.527998924255 208 208 208
26.625000000000 10.375000000000 4.450999259949 215 215 215
26.625000000000 10.375000000000 4.373999595642 216 216 216
26.609375000000 10.375000000000 4.296999931335 87 87 87
26.609375000000 10.375000000000 4.147999763489 236 236 236
26.609375000000 10.375000000000 4.072999000549 235 235 235
26.609375000000 10.375000000000 3.998999595642 232 232 232
26.718750000000 10.375000000000 3.491000175476 181 181 181
26.718750000000 10.375000000000 3.418000221252 191 191 191
26.718750000000 10.375000000000 3.343998908997 165 165 165
26.718750000000 10.375000000000 3.269999504089 177 177 177
26.718750000000 10.375000000000 3.196000099182 157 157 157
26.656250000000 10.375000000000 3.123000144958 203 203 203
26.718750000000 10.437500000000 3.047999382019 138 138 138
26.656250000000 10.250000000000 4.449000358582 203 203 203
26.656250000000 10.250000000000 4.373999595642 219 219 219
26.656250000000 10.250000000000 4.297999382019 224 224 224
26.640625000000 10.250000000000 4.220000267029 221 221 221
26.640625000000 10.250000000000 4.145998954773 226 226 226
26.640625000000 10.250000000000 4.072999000549 226 226 226
26.765625000000 10.250000000000 3.491000175476 188 188 188
26.765625000000 10.250000000000 3.417000770569 156 156 156
26.703125000000 10.250000000000 3.339999198914 173 173 173
26.703125000000 10.250000000000 3.266999244690 189 189 189
26.750000000000 10.250000000000 3.193999290466 129 129 129
26.687500000000 10.250000000000 3.119999885559 181 181 181
26.750000000000 10.250000000000 3.046000480652 173 173 173
26.750000000000 10.250000000000 2.971999168396 171 171 171
26.750000000000 10.250000000000 2.897999763489 181 181 181
26.578125000000 10.250000000000 2.249999046326 14 14 14
26.578125000000 10.250000000000 2.176999092102 71 71 71
26.578125000000 10.250000000000 2.102000236511 122 122 122
26.578125000000 10.250000000000 2.029000282288 141 141 141
26.578125000000 10.250000000000 1.953999519348 150 150 150
26.578125000000 10.250000000000 1.880999565125 153 153 153
26.578125000000 10.250000000000 1.805999755859 163 163 163
26.562500000000 10.250000000000 1.731999397278 163 163 163
26.562500000000 10.250000000000 1.656000137329 169 169 169
26.562500000000 10.250000000000 1.581000328064 170 170 170
26.562500000000 10.250000000000 1.503999710083 169 169 169
26.562500000000 10.250000000000 1.425999641418 160 160 160
26.656250000000 10.125000000000 4.596999168396 111 111 111
26.640625000000 10.125000000000 4.516999244690 116 116 116
26.640625000000 10.125000000000 4.440999031067 117 117 117
26.562500000000 10.062500000000 4.349999427795 184 184 184
26.609375000000 10.125000000000 4.285000801086 117 117 117
26.609375000000 10.125000000000 4.210000038147 145 145 145
26.562500000000 10.062500000000 4.127999305725 186 186 186
26.578125000000 10.125000000000 4.057999610901 103 103 103
26.562500000000 10.125000000000 3.983000755310 83 83 83
26.578125000000 10.125000000000 3.911000251770 74 74 74
26.578125000000 10.125000000000 3.838999748230 83 83 83
26.578125000000 10.125000000000 3.765999794006 81 81 81
26.562500000000 10.125000000000 3.692000389099 97 97 97
26.546875000000 10.125000000000 3.619000434875 109 109 109
26.562500000000 10.125000000000 3.547999382019 126 126 126
26.593750000000 10.125000000000 3.477999687195 155 155 155
26.625000000000 10.125000000000 3.407000541687 151 151 151
26.609375000000 10.125000000000 3.335000038147 156 156 156
26.609375000000 10.125000000000 3.262999534607 153 153 153
26.609375000000 10.125000000000 3.189999580383 158 158 158
26.593750000000 10.125000000000 3.117999076843 157 157 157
26.609375000000 10.125000000000 3.046000480652 153 153 153
26.609375000000 10.125000000000 2.973999977112 164 164 164
26.609375000000 10.125000000000 2.901999473572 165 165 165
26.625000000000 10.125000000000 2.828999519348 153 153 153
26.625000000000 10.125000000000 2.756999015808 133 133 133
26.625000000000 10.125000000000 2.683999061584 124 124 124
26.625000000000 10.125000000000 2.612000465393 123 123 123
26.625000000000 10.125000000000 2.539000511169 105 105 105
26.609375000000 10.125000000000 2.467000007629 103 103 103
26.609375000000 10.125000000000 2.393000602722 85 85 85
26.625000000000 10.125000000000 2.318999290466 75 75 75
26.609375000000 10.125000000000 2.248000144958 58 58 58
26.703125000000 9.937500000000 4.373000144958 214 214 214
26.703125000000 9.937500000000 4.297999382019 213 213 213
26.703125000000 9.937500000000 4.223000526428 213 213 213
26.718750000000 9.937500000000 4.151000022888 239 239 239
26.718750000000 9.937500000000 4.074999809265 230 230 230
26.843750000000 10.000000000000 3.491000175476 178 178 178
26.843750000000 10.000000000000 3.415999412537 168 168 168
26.765625000000 10.000000000000 3.338999748230 199 199 199
26.781250000000 10.000000000000 3.265000343323 181 181 181
26.828125000000 10.000000000000 3.192000389099 174 174 174
26.812500000000 10.000000000000 3.116999626160 189 189 189
26.828125000000 10.000000000000 3.043000221252 175 175 175
26.828125000000 10.000000000000 2.967999458313 141 141 141
26.734375000000 9.812500000000 4.449999809265 211 211 211
26.750000000000 9.812500000000 4.376999855042 213 213 213
26.734375000000 9.812500000000 4.299000740051 210 210 210
26.765625000000 9.812500000000 4.152998924255 245 245 245
26.750000000000 9.812500000000 4.075999259949 240 240 240
26.765625000000 9.812500000000 4.001999855042 242 242 242
26.875000000000 9.875000000000 3.414999961853 152 152 152
26.875000000000 9.875000000000 3.339999198914 179 179 179
26.875000000000 9.875000000000 3.265000343323 176 176 176
26.875000000000 9.875000000000 3.190999031067 134 134 134
26.765625000000 9.687500000000 4.529999732971 200 200 200
26.765625000000 9.687500000000 4.453999519348 209 209 209
26.765625000000 9.687500000000 4.379000663757 211 211 211
26.781250000000 9.687500000000 4.078999519348 250 250 250
26.781250000000 9.687500000000 4.004000663757 239 239 239
26.781250000000 9.687500000000 3.928999900818 246 246 246
26.781250000000 9.687500000000 3.853999137878 176 176 176
26.812500000000 9.562500000000 4.616000175476 186 186 186
26.812500000000 9.562500000000 4.536999702454 204 204 204
26.812500000000 9.562500000000 4.460999488831 216 216 216
26.812500000000 9.562500000000 4.004000663757 222 222 222
26.828125000000 9.562500000000 3.932999610901 235 235 235
26.812500000000 9.562500000000 3.855000495911 185 185 185
13.468750000000 7.187500000000 4.157000541687 198 198 198
13.468750000000 7.187500000000 4.241999626160 219 219 219
13.468750000000 7.187500000000 4.325999259949 209 209 209
13.453125000000 7.187500000000 4.755999565125 209 209 209
13.453125000000 7.187500000000 4.842999458313 216 216 216
13.453125000000 7.187500000000 4.929999351501 95 95 95
13.265625000000 7.312500000000 3.424000740051 59 59 59
13.250000000000 7.312500000000 3.508999824524 97 97 97
13.218750000000 7.312500000000 3.595000267029 103 103 103
13.234375000000 7.312500000000 3.679999351501 99 99 99
13.234375000000 7.312500000000 3.765000343323 98 98 98
13.421875000000 7.312500000000 4.248000144958 216 216 216
13.437500000000 7.312500000000 4.329998970032 220 220 220
13.437500000000 7.312500000000 4.417000770569 199 199 199
13.421875000000 7.312500000000 4.674000740051 232 232 232
13.406250000000 7.312500000000 4.765000343323 239 239 239
13.421875000000 7.312500000000 4.848000526428 230 230 230
13.390625000000 7.500000000000 1.925999641418 93 93 93
13.421875000000 7.500000000000 2.015000343323 139 139 139
13.406250000000 7.500000000000 2.096999168396 169 169 169
13.421875000000 7.500000000000 2.182000160217 165 165 165
13.406250000000 7.500000000000 2.263998985291 162 162 162
13.406250000000 7.500000000000 2.345999717712 164 164 164
13.406250000000 7.500000000000 2.429999351501 127 127 127
13.406250000000 7.500000000000 2.512999534607 102 102 102
13.390625000000 7.500000000000 2.595000267029 92 92 92
13.390625000000 7.500000000000 2.678000450134 54 54 54
13.234375000000 7.437500000000 3.174000740051 86 86 86
13.234375000000 7.437500000000 3.258000373840 174 174 174
13.250000000000 7.437500000000 3.342000007629 110 110 110
13.234375000000 7.437500000000 3.425999641418 164 164 164
13.234375000000 7.437500000000 3.511000633240 127 127 127
13.250000000000 7.437500000000 3.593998908997 88 88 88
13.265625000000 7.437500000000 3.678999900818 88 88 88
13.203125000000 7.437500000000 3.768000602722 98 98 98
13.203125000000 7.437500000000 3.852999687195 60 60 60
13.390625000000 7.500000000000 4.255000114441 116 116 116
13.390625000000 7.500000000000 4.338000297546 216 216 216
13.406250000000 7.500000000000 4.421999931335 213 213 213
13.359375000000 7.437500000000 4.513998985291 53 53 53
13.390625000000 7.437500000000 4.595000267029 238 238 238
13.375000000000 7.437500000000 4.683999061584 255 255 255
13.390625000000 7.437500000000 4.766999244690 234 234 234
13.375000000000 7.625000000000 2.595000267029 109 109 109
13.359375000000 7.625000000000 2.678000450134 150 150 150
13.375000000000 7.625000000000 2.761000633240 161 161 161
13.375000000000 7.625000000000 2.843998908997 169 169 169
13.406250000000 7.625000000000 2.926999092102 160 160 160
13.437500000000 7.625000000000 3.009999275208 167 167 167
13.453125000000 7.625000000000 3.092000007629 176 176 176
13.453125000000 7.625000000000 3.172999382019 167 167 167
13.437500000000 7.625000000000 3.255000114441 121 121 121
13.406250000000 7.625000000000 3.336998939514 113 113 113
13.390625000000 7.625000000000 3.419999122620 153 153 153
13.390625000000 7.625000000000 3.502999305725 166 166 166
13.375000000000 7.625000000000 3.585999488831 153 153 153
13.359375000000 7.625000000000 3.669999122620 164 164 164
13.359375000000 7.625000000000 3.752999305725 163 163 163
13.359375000000 7.625000000000 3.835999488831 124 124 124
13.375000000000 7.625000000000 3.918999671936 101 101 101
13.359375000000 7.625000000000 4.002999305725 85 85 85
13.359375000000 7.625000000000 4.088000297546 26 26 26
13.359375000000 7.625000000000 4.341000556946 195 195 195
13.359375000000 7.625000000000 4.426999092102 214 214 214
13.359375000000 7.625000000000 4.511000633240 206 206 206
13.343750000000 7.625000000000 4.601000785828 247 247 247
13.359375000000 7.625000000000 4.685999870300 224 224 224
13.281250000000 7.562500000000 5.054999351501 82 82 82
13.203125000000 7.750000000000 3.256999015808 98 98 98
13.203125000000 7.750000000000 3.341000556946 94 94 94
13.296875000000 7.750000000000 3.421999931335 126 126 126
13.203125000000 7.750000000000 3.509999275208 96 96 96
13.312500000000 7.750000000000 3.588000297546 155 155 155
13.187500000000 7.750000000000 3.679999351501 97 97 97
13.187500000000 7.750000000000 3.765000343323 95 95 95
13.328125000000 7.750000000000 3.919999122620 29 29 29
13.343750000000 7.750000000000 4.002999305725 119 119 119
13.359375000000 7.750000000000 4.085000038147 142 142 142
13.343750000000 7.750000000000 4.169999122620 149 149 149
13.343750000000 7.750000000000 4.254000663757 159 159 159
13.390625000000 7.750000000000 4.331999778748 154 154 154
13.421875000000 7.750000000000 4.410000801086 212 212 212
13.406250000000 7.750000000000 4.498999595642 181 181 181
13.437500000000 7.750000000000 4.575999259949 226 226 226
13.406250000000 7.750000000000 4.668999671936 153 153 153
13.390625000000 7.750000000000 4.756999015808 132 132 132
13.343750000000 7.750000000000 4.855999946594 163 163 163
13.500000000000 7.750000000000 4.904000282288 128 128 128
13.468750000000 7.750000000000 4.999999046326 90 90 90
13.562500000000 7.750000000000 5.058999061584 114 114 114
13.187500000000 7.875000000000 3.424000740051 98 98 98
13.187500000000 7.875000000000 3.508000373840 96 96 96
13.187500000000 7.875000000000 3.592999458313 148 148 148
13.171875000000 7.875000000000 3.678000450134 100 100 100
13.171875000000 7.875000000000 3.763998985291 97 97 97
13.281250000000 7.875000000000 4.258999824524 228 228 228
13.281250000000 7.875000000000 4.345000267029 209 209 209
13.281250000000 7.875000000000 4.432000160217 211 211 211
13.296875000000 7.875000000000 4.515000343323 229 229 229
13.296875000000 7.875000000000 4.599999427795 231 231 231
13.312500000000 7.875000000000 4.685000419617 103 103 103
13.390625000000 7.875000000000 4.754000663757 21 21 21
13.437500000000 7.875000000000 4.914000511169 95 95 95
13.234375000000 7.875000000000 5.053000450134 96 96 96
13.515625000000 7.875000000000 5.067000389099 92 92 92
13.250000000000 8.000000000000 4.175000190735 232 232 232
13.250000000000 8.000000000000 4.261000633240 230 230 230
13.250000000000 8.000000000000 4.345999717712 214 214 214
13.281250000000 8.000000000000 4.512999534607 203 203 203
13.265625000000 8.000000000000 4.599999427795 219 219 219
13.265625000000 8.000000000000 4.688000679016 252 252 252
13.234375000000 8.125000000000 4.089999198914 233 233 233
13.203125000000 8.125000000000 4.178000450134 253 253 253
13.218750000000 8.125000000000 4.261000633240 231 231 231
13.250000000000 8.125000000000 4.599999427795 220 220 220
13.250000000000 8.125000000000 4.686999320984 253 253 253
13.265625000000 8.125000000000 4.772000312805 255 255 255
13.156250000000 8.250000000000 4.095000267029 11 11 11
13.187500000000 8.250000000000 4.178000450134 230 230 230
13.218750000000 8.250000000000 4.688000679016 255 255 255
13.234375000000 8.250000000000 4.772999763489 255 255 255
13.265625000000 8.250000000000 4.852000236511 106 106 106
12.046875000000 15.625000000000 4.193999290466 151 151 151
12.015625000000 15.625000000000 4.730000495911 136 136 136
12.015625000000 15.750000000000 4.022999763489 19 19 19
12.046875000000 15.750000000000 4.106999397278 255 255 255
12.031250000000 15.750000000000 4.195000648499 247 247 247
12.046875000000 15.750000000000 4.280999183655 205 205 205
12.015625000000 15.750000000000 4.637999534607 182 182 182
12.000000000000 15.750000000000 4.730000495911 191 191 191
12.000000000000 15.750000000000 4.818999290466 197 197 197
12.000000000000 15.875000000000 4.108000755310 25 25 25
12.015625000000 15.875000000000 4.193999290466 250 250 250
12.015625000000 15.875000000000 4.280999183655 236 236 236
12.031250000000 15.875000000000 4.366000175476 200 200 200
12.015625000000 15.875000000000 4.546999931335 97 97 97
12.015625000000 15.875000000000 4.633999824524 197 197 197
12.000000000000 15.875000000000 4.724999427795 197 197 197
11.953125000000 16.062500000000 3.418000221252 163 163 163
11.937500000000 16.062500000000 3.505000114441 177 177 177
11.937500000000 16.062500000000 3.591000556946 195 195 195
11.937500000000 16.062500000000 3.678000450134 193 193 193
11.921875000000 16.062500000000 3.765999794006 194 194 194
12.000000000000 16.062500000000 4.192999839783 58 58 58
12.015625000000 16.062500000000 4.279000282288 237 237 237
12.015625000000 16.062500000000 4.365000724792 228 228 228
12.000000000000 16.062500000000 4.454998970032 191 191 191
12.015625000000 16.062500000000 4.539999961853 198 198 198
12.015625000000 16.062500000000 4.630999565125 201 201 201
12.015625000000 16.062500000000 4.720000267029 139 139 139
11.921875000000 16.187500000000 3.244999885559 161 161 161
11.906250000000 16.187500000000 3.331000328064 167 167 167
11.921875000000 16.187500000000 3.417000770569 196 196 196
11.921875000000 16.187500000000 3.504000663757 182 182 182
11.953125000000 16.187500000000 3.588999748230 181 181 181
11.937500000000 16.187500000000 3.675999641418 185 185 185
11.890625000000 16.187500000000 3.765999794006 182 182 182
12.000000000000 16.187500000000 4.363999366760 234 234 234
12.015625000000 16.187500000000 4.449999809265 216 216 216
12.015625000000 16.187500000000 4.536999702454 211 211 211
12.000000000000 16.187500000000 4.626999855042 199 199 199
12.015625000000 16.187500000000 4.803999900818 19 19 19
12.046875000000 16.375000000000 1.342000007629 85 85 85
12.062500000000 16.375000000000 1.611999511719 52 52 52
12.062500000000 16.312500000000 1.701000213623 66 66 66
12.078125000000 16.312500000000 1.789999961853 79 79 79
12.046875000000 16.312500000000 1.875000000000 90 90 90
12.062500000000 16.312500000000 1.963999748230 108 108 108
12.046875000000 16.312500000000 2.047999382019 127 127 127
12.046875000000 16.312500000000 2.134999275208 144 144 144
12.046875000000 16.312500000000 2.220999717712 170 170 170
12.062500000000 16.312500000000 2.308999061584 175 175 175
12.062500000000 16.312500000000 2.394999504089 176 176 176
12.062500000000 16.312500000000 2.480000495911 183 183 183
12.046875000000 16.312500000000 2.564999580383 179 179 179
12.046875000000 16.312500000000 2.650000572205 177 177 177
12.046875000000 16.312500000000 2.734999656677 171 171 171
12.046875000000 16.312500000000 2.818999290466 232 232 232
12.046875000000 16.312500000000 2.904999732971 210 210 210
12.062500000000 16.312500000000 2.990000724792 190 190 190
12.109375000000 16.312500000000 3.074999809265 141 141 141
12.109375000000 16.312500000000 3.158999443054 145 145 145
12.078125000000 16.312500000000 3.242999076843 151 151 151
11.968750000000 16.312500000000 3.328999519348 180 180 180
11.968750000000 16.312500000000 3.414999961853 185 185 185
11.968750000000 16.312500000000 3.501000404358 195 195 195
11.968750000000 16.312500000000 3.585999488831 183 183 183
11.984375000000 16.312500000000 3.671000480652 181 181 181
12.062500000000 16.312500000000 3.751000404358 168 168 168
12.078125000000 16.312500000000 3.835999488831 152 152 152
12.062500000000 16.312500000000 3.921000480652 163 163 163
12.046875000000 16.312500000000 4.008999824524 158 158 158
12.015625000000 16.312500000000 4.098000526428 162 162 162
12.015625000000 16.312500000000 4.185000419617 172 172 172
12.015625000000 16.312500000000 4.270998954773 157 157 157
12.000000000000 16.312500000000 4.359999656677 169 169 169
12.000000000000 16.312500000000 4.446999549866 180 180 180
12.000000000000 16.312500000000 4.535000801086 179 179 179
12.000000000000 16.312500000000 4.626000404358 182 182 182
12.000000000000 16.312500000000 4.711998939514 127 127 127
12.015625000000 16.312500000000 4.800000190735 126 126 126
12.093750000000 16.500000000000 1.357999801636 163 163 163
12.062500000000 16.500000000000 1.439000129700 153 153 153
12.046875000000 16.500000000000 1.522999763489 183 183 183
11.984375000000 16.500000000000 1.599999427795 255 255 255
11.937500000000 16.437500000000 1.677000045776 255 255 255
12.046875000000 16.500000000000 1.789999961853 94 94 94
12.046875000000 16.500000000000 1.875999450684 40 40 40
11.859375000000 16.437500000000 3.157000541687 14 14 14
11.828125000000 16.437500000000 3.244000434875 177 177 177
11.828125000000 16.437500000000 3.331000328064 174 174 174
11.828125000000 16.437500000000 3.418000221252 180 180 180
11.828125000000 16.437500000000 3.505000114441 180 180 180
11.875000000000 16.437500000000 3.591000556946 136 136 136
11.875000000000 16.437500000000 3.676999092102 181 181 181
11.828125000000 16.437500000000 3.766999244690 188 188 188
11.812500000000 16.437500000000 3.856999397278 48 48 48
11.984375000000 16.437500000000 4.272999763489 206 206 206
11.984375000000 16.437500000000 4.359999656677 229 229 229
11.984375000000 16.437500000000 4.449000358582 219 219 219
11.984375000000 16.437500000000 4.536000251770 221 221 221
11.968750000000 16.437500000000 4.626999855042 219 219 219
11.968750000000 16.437500000000 4.714999198914 198 198 198
11.796875000000 16.562500000000 3.418999671936 156 156 156
11.781250000000 16.562500000000 3.506999015808 188 188 188
11.812500000000 16.562500000000 3.593998908997 196 196 196
11.796875000000 16.562500000000 3.682000160217 195 195 195
11.796875000000 16.562500000000 3.769999504089 185 185 185
11.968750000000 16.562500000000 4.186999320984 154 154 154
11.968750000000 16.562500000000 4.275000572205 248 248 248
11.968750000000 16.562500000000 4.360999107361 236 236 236
11.953125000000 16.562500000000 4.452000617981 20 20 20
11.953125000000 16.562500000000 4.626999855042 223 223 223
11.953125000000 16.562500000000 4.717000007629 221 221 221
11.953125000000 16.562500000000 4.804999351501 193 193 193
11.953125000000 16.750000000000 4.102999687195 112 112 112
