23.078125000000 8.312500000000 6.343998908997 166 166 166
23.140625000000 8.250000000000 6.352999687195 57 57 57
23.359375000000 8.187500000000 3.911000251770 40 40 40
23.375000000000 8.187500000000 3.874999046326 64 64 64
23.359375000000 8.187500000000 3.835999488831 72 72 72
23.359375000000 8.187500000000 3.799000740051 83 83 83
23.359375000000 8.250000000000 3.762000083923 84 84 84
23.359375000000 8.250000000000 3.724999427795 97 97 97
23.359375000000 8.250000000000 3.688000679016 107 107 107
23.375000000000 8.187500000000 3.651999473572 110 110 110
23.359375000000 8.250000000000 3.613999366760 113 113 113
23.359375000000 8.250000000000 3.578000068665 121 121 121
23.359375000000 8.250000000000 3.540999412537 116 116 116
23.359375000000 8.250000000000 3.505000114441 131 131 131
23.359375000000 8.250000000000 3.468998908997 133 133 133
23.359375000000 8.250000000000 3.432000160217 140 140 140
23.359375000000 8.250000000000 3.395998954773 141 141 141
23.359375000000 8.250000000000 3.359000205994 141 141 141
23.359375000000 8.250000000000 3.322999000549 138 138 138
23.343750000000 8.250000000000 3.286999702454 133 133 133
23.359375000000 8.250000000000 3.249999046326 138 138 138
23.359375000000 8.250000000000 3.213000297546 146 146 146
23.359375000000 8.250000000000 3.176999092102 146 146 146
23.343750000000 8.250000000000 3.140999794006 147 147 147
23.359375000000 8.250000000000 3.105000495911 142 142 142
23.359375000000 8.250000000000 3.067999839783 157 157 157
23.359375000000 8.250000000000 3.030999183655 145 145 145
23.359375000000 8.250000000000 2.992999076843 147 147 147
23.359375000000 8.250000000000 2.956000328064 145 145 145
23.359375000000 8.250000000000 2.919999122620 144 144 144
23.359375000000 8.250000000000 2.883000373840 148 148 148
23.359375000000 8.250000000000 2.845999717712 145 145 145
23.359375000000 8.250000000000 2.808999061584 149 149 149
23.343750000000 8.250000000000 2.772999763489 140 140 140
23.343750000000 8.250000000000 2.734999656677 140 140 140
23.343750000000 8.250000000000 2.696999549866 145 145 145
23.343750000000 8.250000000000 2.658999443054 144 144 144
23.359375000000 8.250000000000 2.619000434875 138 138 138
23.343750000000 8.250000000000 2.582999229431 139 139 139
23.343750000000 8.250000000000 2.544999122620 139 139 139
23.343750000000 8.250000000000 2.506999015808 139 139 139
23.359375000000 8.250000000000 2.464999198914 141 141 141
23.343750000000 8.250000000000 2.425999641418 142 142 142
23.343750000000 8.250000000000 2.388998985291 145 145 145
23.343750000000 8.250000000000 2.349999427795 138 138 138
23.343750000000 8.250000000000 2.310999870300 138 138 138
23.328125000000 8.250000000000 2.272999763489 138 138 138
23.343750000000 8.250000000000 2.223999977112 142 142 142
23.343750000000 8.250000000000 2.186999320984 140 140 140
23.343750000000 8.250000000000 2.145998954773 141 141 141
23.343750000000 8.250000000000 2.105000495911 139 139 139
23.328125000000 8.250000000000 2.064999580383 141 141 141
23.328125000000 8.250000000000 2.022999763489 145 145 145
23.328125000000 8.250000000000 1.980999946594 143 143 143
23.328125000000 8.250000000000 1.935999870300 141 141 141
23.328125000000 8.250000000000 1.893000602722 142 142 142
23.343750000000 8.250000000000 1.843999862671 138 138 138
23.328125000000 8.312500000000 1.807000160217 129 129 129
23.328125000000 8.312500000000 1.757999420166 136 136 136
23.328125000000 8.312500000000 1.713000297546 136 136 136
23.328125000000 8.312500000000 1.670999526978 125 125 125
23.328125000000 8.312500000000 1.625000000000 136 136 136
23.328125000000 8.312500000000 1.574999809265 137 137 137
23.328125000000 8.312500000000 1.526999473572 131 131 131
23.328125000000 8.312500000000 1.479999542236 135 135 135
23.312500000000 8.312500000000 1.432000160217 130 130 130
23.312500000000 8.312500000000 1.381999969482 140 140 140
23.015625000000 8.375000000000 9.810000419617 76 76 76
23.031250000000 8.375000000000 9.623999595642 147 147 147
23.093750000000 8.312500000000 9.567000389099 174 174 174
23.171875000000 8.312500000000 9.563000679016 165 165 165
23.078125000000 8.375000000000 7.898999214172 117 117 117
23.156250000000 8.312500000000 7.925000190735 37 37 37
23.187500000000 8.312500000000 7.869000434875 129 129 129
23.218750000000 8.312500000000 7.803999900818 120 120 120
24.187500000000 7.875000000000 8.789999961853 20 20 20
23.906250000000 8.000000000000 8.026000022888 88 88 88
23.406250000000 8.250000000000 6.910000801086 61 61 61
23.437500000000 8.250000000000 6.865000724792 103 103 103
23.406250000000 8.250000000000 6.741999626160 61 61 61
23.390625000000 8.250000000000 6.661999702454 89 89 89
23.406250000000 8.250000000000 6.586998939514 95 95 95
23.406250000000 8.250000000000 6.512999534607 105 105 105
23.359375000000 8.312500000000 6.398999214172 153 153 153
23.281250000000 8.312500000000 6.255999565125 161 161 161
23.296875000000 8.312500000000 6.204998970032 166 166 166
23.343750000000 8.312500000000 6.183999061584 160 160 160
23.390625000000 8.250000000000 6.161000251770 160 160 160
23.390625000000 8.250000000000 6.098000526428 158 158 158
23.406250000000 8.250000000000 6.036000251770 145 145 145
23.406250000000 8.250000000000 5.973000526428 147 147 147
23.406250000000 8.250000000000 5.914000511169 153 153 153
23.406250000000 8.312500000000 5.851000785828 155 155 155
23.390625000000 8.312500000000 5.790999412537 153 153 153
23.390625000000 8.312500000000 5.724999427795 155 155 155
23.390625000000 8.312500000000 5.675999641418 157 157 157
23.390625000000 8.312500000000 5.610999107361 162 162 162
23.390625000000 8.312500000000 5.557000160217 163 163 163
23.390625000000 8.312500000000 5.501000404358 166 166 166
23.390625000000 8.312500000000 5.452000617981 168 168 168
23.390625000000 8.312500000000 5.394000053406 169 169 169
23.390625000000 8.312500000000 5.343998908997 165 165 165
23.390625000000 8.312500000000 5.293999671936 170 170 170
23.390625000000 8.312500000000 5.245999336243 158 158 158
23.390625000000 8.312500000000 5.190999031067 156 156 156
23.375000000000 8.312500000000 5.137000083923 161 161 161
23.375000000000 8.312500000000 5.088999748230 166 166 166
23.375000000000 8.312500000000 5.040999412537 169 169 169
23.375000000000 8.312500000000 4.994999885559 172 172 172
23.375000000000 8.312500000000 4.947999000549 171 171 171
23.375000000000 8.312500000000 4.904000282288 166 166 166
23.359375000000 8.312500000000 4.852999687195 172 172 172
23.375000000000 8.312500000000 4.810999870300 169 169 169
23.375000000000 8.312500000000 4.766999244690 165 165 165
23.375000000000 8.312500000000 4.724999427795 161 161 161
23.359375000000 8.312500000000 4.676999092102 154 154 154
23.375000000000 8.312500000000 4.640000343323 139 139 139
23.375000000000 8.312500000000 4.593998908997 149 149 149
23.375000000000 8.312500000000 4.553999900818 149 149 149
23.375000000000 8.312500000000 4.511000633240 139 139 139
23.375000000000 8.312500000000 4.467999458313 122 122 122
23.375000000000 8.312500000000 4.425999641418 136 136 136
23.359375000000 8.312500000000 4.383999824524 142 142 142
23.375000000000 8.312500000000 4.346999168396 137 137 137
23.375000000000 8.312500000000 4.307000160217 109 109 109
23.375000000000 8.312500000000 4.265999794006 102 102 102
23.375000000000 8.312500000000 4.227999687195 95 95 95
23.375000000000 8.312500000000 4.189999580383 88 88 88
23.390625000000 8.312500000000 4.151999473572 89 89 89
23.390625000000 8.312500000000 4.113999366760 82 82 82
23.390625000000 8.312500000000 4.075999259949 81 81 81
23.406250000000 8.312500000000 4.037999153137 81 81 81
23.406250000000 8.312500000000 4.001000404358 83 83 83
23.421875000000 8.312500000000 3.964999198914 94 94 94
23.437500000000 8.312500000000 3.929999351501 93 93 93
23.437500000000 8.312500000000 3.891999244690 92 92 92
23.453125000000 8.312500000000 3.855000495911 91 91 91
23.453125000000 8.312500000000 3.817000389099 92 92 92
23.453125000000 8.312500000000 3.776000022888 102 102 102
23.453125000000 8.312500000000 3.738999366760 97 97 97
23.500000000000 8.312500000000 3.704998970032 90 90 90
23.531250000000 8.250000000000 3.668999671936 85 85 85
23.578125000000 8.250000000000 3.633999824524 75 75 75
23.593750000000 8.250000000000 3.595999717712 75 75 75
23.609375000000 8.250000000000 3.557000160217 78 78 78
23.609375000000 8.250000000000 3.516999244690 80 80 80
23.609375000000 8.250000000000 3.477000236511 81 81 81
23.609375000000 8.250000000000 3.438000679016 97 97 97
23.609375000000 8.250000000000 3.397999763489 87 87 87
23.609375000000 8.250000000000 3.358000755310 89 89 89
23.609375000000 8.250000000000 3.317999839783 97 97 97
23.625000000000 8.250000000000 3.277998924255 102 102 102
23.437500000000 8.312500000000 3.245999336243 116 116 116
23.437500000000 8.312500000000 3.209000587463 126 126 126
23.437500000000 8.312500000000 3.171000480652 129 129 129
23.453125000000 8.312500000000 3.133000373840 107 107 107
23.625000000000 8.250000000000 3.077000617981 98 98 98
23.625000000000 8.250000000000 3.037999153137 94 94 94
23.625000000000 8.250000000000 2.997000694275 94 94 94
23.640625000000 8.250000000000 2.954998970032 97 97 97
23.640625000000 8.250000000000 2.914000511169 99 99 99
23.640625000000 8.250000000000 2.872000694275 106 106 106
23.640625000000 8.250000000000 2.831999778748 105 105 105
23.640625000000 8.250000000000 2.789000511169 112 112 112
23.640625000000 8.250000000000 2.748000144958 110 110 110
23.640625000000 8.250000000000 2.706999778748 111 111 111
23.640625000000 8.250000000000 2.664000511169 110 110 110
23.656250000000 8.250000000000 2.619999885559 117 117 117
23.640625000000 8.250000000000 2.581000328064 115 115 115
23.640625000000 8.250000000000 2.537999153137 111 111 111
23.656250000000 8.250000000000 2.491999626160 111 111 111
23.640625000000 8.250000000000 2.452000617981 115 115 115
23.656250000000 8.250000000000 2.405999183655 119 119 119
23.671875000000 8.250000000000 2.356999397278 121 121 121
23.531250000000 8.312500000000 2.359999656677 130 130 130
23.437500000000 8.375000000000 2.349999427795 122 122 122
23.671875000000 8.250000000000 2.227000236511 125 125 125
23.656250000000 8.250000000000 2.182999610901 123 123 123
23.656250000000 8.250000000000 2.137999534607 129 129 129
23.671875000000 8.250000000000 2.089999198914 134 134 134
23.515625000000 8.312500000000 2.105000495911 117 117 117
23.500000000000 8.312500000000 2.067999839783 112 112 112
23.500000000000 8.312500000000 2.022000312805 119 119 119
23.531250000000 8.312500000000 1.967999458313 112 112 112
23.484375000000 8.312500000000 1.945000648499 123 123 123
23.453125000000 8.375000000000 1.910000801086 124 124 124
23.656250000000 8.250000000000 1.762000083923 119 119 119
23.671875000000 8.250000000000 1.710000038147 120 120 120
23.656250000000 8.250000000000 1.661999702454 118 118 118
23.671875000000 8.250000000000 1.609000205994 121 121 121
23.656250000000 8.250000000000 1.562000274658 122 122 122
23.671875000000 8.250000000000 1.503999710083 125 125 125
23.656250000000 8.250000000000 1.456000328064 125 125 125
23.640625000000 8.312500000000 1.418000221252 162 162 162
23.593750000000 8.312500000000 1.399000167847 162 162 162
23.515625000000 8.312500000000 1.387000083923 166 166 166
23.453125000000 8.375000000000 1.378000259399 166 166 166
23.390625000000 8.375000000000 1.366999626160 167 167 167
23.093750000000 8.437500000000 9.842000007629 13 13 13
23.265625000000 8.375000000000 9.852999687195 89 89 89
23.250000000000 8.375000000000 9.623999595642 176 176 176
23.265625000000 8.375000000000 9.480999946594 147 147 147
23.328125000000 8.375000000000 9.411999702454 181 181 181
23.375000000000 8.375000000000 9.358000755310 181 181 181
23.406250000000 8.312500000000 9.261000633240 152 152 152
23.421875000000 8.312500000000 9.108000755310 151 151 151
23.421875000000 8.312500000000 8.949999809265 137 137 137
23.406250000000 8.312500000000 8.797999382019 160 160 160
23.406250000000 8.375000000000 8.655999183655 160 160 160
23.406250000000 8.375000000000 8.505999565125 164 164 164
23.406250000000 8.375000000000 8.374999046326 149 149 149
23.421875000000 8.375000000000 8.266999244690 136 136 136
23.406250000000 8.375000000000 8.141999244690 136 136 136
23.406250000000 8.375000000000 8.025000572205 137 137 137
23.390625000000 8.375000000000 7.883000373840 135 135 135
23.390625000000 8.375000000000 7.766999244690 148 148 148
23.421875000000 8.375000000000 7.699000358582 139 139 139
23.421875000000 8.375000000000 7.595000267029 129 129 129
23.406250000000 8.375000000000 7.484999656677 128 128 128
23.406250000000 8.375000000000 7.387999534607 117 117 117
23.406250000000 8.375000000000 7.293999671936 126 126 126
23.406250000000 8.375000000000 7.203000068665 141 141 141
23.421875000000 8.375000000000 7.124999046326 146 146 146
23.421875000000 8.375000000000 7.039000511169 138 138 138
23.421875000000 8.375000000000 6.949999809265 148 148 148
23.421875000000 8.375000000000 6.866999626160 154 154 154
23.437500000000 8.375000000000 6.808999061584 143 143 143
23.484375000000 8.375000000000 6.777998924255 133 133 133
23.500000000000 8.375000000000 6.720000267029 131 131 131
23.531250000000 8.312500000000 6.665999412537 126 126 126
23.562500000000 8.312500000000 6.634999275208 131 131 131
23.578125000000 8.312500000000 6.568999290466 134 134 134
23.593750000000 8.312500000000 6.518000602722 142 142 142
23.609375000000 8.312500000000 6.449000358582 148 148 148
23.531250000000 8.375000000000 6.307000160217 150 150 150
23.609375000000 8.312500000000 6.310999870300 147 147 147
23.609375000000 8.312500000000 6.245999336243 153 153 153
23.609375000000 8.312500000000 6.175999641418 155 155 155
23.609375000000 8.312500000000 6.106999397278 151 151 151
23.609375000000 8.312500000000 6.046000480652 147 147 147
23.609375000000 8.312500000000 5.985999107361 149 149 149
23.609375000000 8.312500000000 5.924000740051 142 142 142
23.609375000000 8.312500000000 5.858000755310 144 144 144
23.625000000000 8.312500000000 5.803000450134 143 143 143
23.500000000000 8.375000000000 5.657999992371 139 139 139
23.500000000000 8.375000000000 5.602999687195 150 150 150
23.531250000000 8.375000000000 5.560999870300 140 140 140
23.609375000000 8.312500000000 5.567000389099 145 145 145
23.609375000000 8.312500000000 5.511000633240 144 144 144
23.609375000000 8.312500000000 5.453999519348 139 139 139
23.609375000000 8.312500000000 5.402998924255 135 135 135
23.609375000000 8.312500000000 5.342999458313 131 131 131
23.609375000000 8.312500000000 5.290999412537 127 127 127
23.593750000000 8.312500000000 5.233000755310 128 128 128
23.609375000000 8.312500000000 5.182999610901 122 122 122
23.609375000000 8.312500000000 5.134999275208 129 129 129
23.609375000000 8.312500000000 5.085000038147 124 124 124
23.609375000000 8.312500000000 5.033999443054 118 118 118
23.609375000000 8.312500000000 4.983000755310 114 114 114
23.593750000000 8.375000000000 4.932000160217 112 112 112
23.593750000000 8.375000000000 4.883999824524 118 118 118
23.609375000000 8.375000000000 4.838999748230 114 114 114
23.593750000000 8.375000000000 4.790999412537 118 118 118
23.593750000000 8.375000000000 4.737999916077 110 110 110
23.593750000000 8.375000000000 4.696000099182 108 108 108
23.593750000000 8.375000000000 4.648999214172 104 104 104
23.593750000000 8.375000000000 4.602000236511 104 104 104
23.593750000000 8.375000000000 4.561999320984 106 106 106
23.609375000000 8.375000000000 4.518000602722 103 103 103
23.609375000000 8.375000000000 4.477000236511 95 95 95
23.593750000000 8.375000000000 4.425000190735 122 122 122
23.593750000000 8.375000000000 4.383000373840 145 145 145
23.593750000000 8.375000000000 4.339999198914 115 115 115
23.609375000000 8.375000000000 4.301999092102 95 95 95
23.625000000000 8.375000000000 4.262000083923 97 97 97
23.609375000000 8.375000000000 4.216000556946 91 91 91
23.609375000000 8.375000000000 4.175000190735 88 88 88
23.609375000000 8.375000000000 4.133999824524 82 82 82
23.609375000000 8.375000000000 4.091000556946 79 79 79
23.625000000000 8.375000000000 4.051999092102 69 69 69
23.625000000000 8.375000000000 4.008999824524 72 72 72
23.625000000000 8.375000000000 3.967999458313 76 76 76
23.625000000000 8.375000000000 3.928000450134 66 66 66
23.625000000000 8.375000000000 3.884999275208 65 65 65
23.640625000000 8.375000000000 3.845999717712 62 62 62
23.625000000000 8.375000000000 3.803999900818 57 57 57
23.640625000000 8.375000000000 3.763998985291 50 50 50
23.640625000000 8.375000000000 3.723999977112 47 47 47
23.640625000000 8.375000000000 3.682000160217 53 53 53
23.656250000000 8.375000000000 2.355999946594 94 94 94
23.687500000000 8.375000000000 1.932000160217 90 90 90
23.718750000000 8.375000000000 1.359999656677 160 160 160
23.625000000000 8.437500000000 1.361999511719 162 162 162
23.562500000000 8.437500000000 1.354999542236 166 166 166
23.437500000000 8.437500000000 10.263998985291 67 67 67
23.453125000000 8.437500000000 10.095999717712 114 114 114
23.468750000000 8.437500000000 9.953999519348 171 171 171
23.484375000000 8.437500000000 9.800000190735 150 150 150
23.500000000000 8.437500000000 9.634999275208 159 159 159
23.531250000000 8.375000000000 9.535000801086 150 150 150
23.515625000000 8.437500000000 9.345000267029 160 160 160
23.546875000000 8.375000000000 9.237999916077 156 156 156
23.546875000000 8.375000000000 9.092000007629 153 153 153
23.562500000000 8.375000000000 8.946000099182 152 152 152
23.562500000000 8.437500000000 8.800000190735 148 148 148
23.531250000000 8.437500000000 8.622000694275 135 135 135
23.546875000000 8.437500000000 8.505000114441 135 135 135
23.546875000000 8.437500000000 8.387000083923 129 129 129
23.546875000000 8.437500000000 8.268000602722 149 149 149
23.609375000000 8.375000000000 8.234000205994 136 136 136
23.640625000000 8.375000000000 8.162999153137 117 117 117
23.562500000000 8.437500000000 7.946000099182 116 116 116
23.718750000000 8.375000000000 8.046000480652 120 120 120
23.734375000000 8.375000000000 7.953999519348 58 58 58
23.593750000000 8.437500000000 7.650000572205 111 111 111
23.671875000000 8.375000000000 7.668000221252 158 158 158
23.687500000000 8.375000000000 7.575999259949 106 106 106
23.750000000000 8.375000000000 7.554999351501 91 91 91
23.593750000000 8.437500000000 7.086998939514 147 147 147
23.656250000000 8.375000000000 7.078999519348 84 84 84
23.765625000000 8.437500000000 9.671000480652 155 155 155
23.781250000000 8.437500000000 9.553000450134 150 150 150
23.890625000000 8.375000000000 9.581000328064 155 155 155
23.937500000000 8.375000000000 8.758999824524 95 95 95
23.937500000000 8.375000000000 8.634999275208 152 152 152
23.890625000000 8.375000000000 8.445000648499 95 95 95
23.781250000000 8.437500000000 8.162999153137 131 131 131
23.875000000000 8.437500000000 8.175999641418 129 129 129
23.828125000000 8.437500000000 8.001999855042 156 156 156
23.843750000000 8.437500000000 7.908999443054 164 164 164
23.921875000000 8.500000000000 9.822999000549 14 14 14
23.937500000000 8.500000000000 8.789999961853 40 40 40
23.984375000000 8.500000000000 8.726000785828 137 137 137
24.015625000000 8.500000000000 8.643000602722 147 147 147
24.093750000000 8.437500000000 8.631999015808 165 165 165
24.078125000000 8.437500000000 8.476000785828 57 57 57
23.859375000000 8.562500000000 8.058999061584 98 98 98
20.796875000000 8.187500000000 6.685999870300 43 43 43
20.796875000000 8.062500000000 7.755000114441 161 161 161
20.750000000000 8.000000000000 7.761000633240 129 129 129
20.718750000000 8.000000000000 7.824999809265 91 91 91
20.671875000000 7.937500000000 6.887999534607 86 86 86
20.640625000000 7.937500000000 6.897000312805 49 49 49
20.671875000000 7.937500000000 7.894000053406 153 153 153
20.937500000000 8.000000000000 6.738999366760 133 133 133
20.968750000000 8.000000000000 7.696999549866 114 114 114
20.875000000000 7.937500000000 6.838999748230 172 172 172
20.906250000000 7.937500000000 7.870999336243 136 136 136
20.859375000000 7.937500000000 7.845000267029 127 127 127
20.812500000000 7.875000000000 7.884999275208 68 68 68
21.187500000000 8.062500000000 6.770998954773 99 99 99
21.156250000000 8.000000000000 6.852000236511 109 109 109
21.125000000000 8.000000000000 6.891999244690 143 143 143
21.171875000000 8.000000000000 7.851000785828 178 178 178
21.125000000000 8.000000000000 7.856999397278 100 100 100
21.406250000000 8.062500000000 6.800000190735 121 121 121
21.390625000000 8.062500000000 6.890000343323 137 137 137
21.375000000000 8.062500000000 7.050000190735 127 127 127
21.437500000000 8.062500000000 7.845000267029 49 49 49
21.390625000000 8.062500000000 7.855000495911 173 173 173
21.343750000000 8.000000000000 7.848999977112 37 37 37
21.656250000000 8.125000000000 6.800999641418 96 96 96
21.640625000000 8.125000000000 6.856999397278 165 165 165
21.609375000000 8.062500000000 6.911999702454 155 155 155
21.656250000000 8.125000000000 7.213999748230 122 122 122
21.671875000000 8.125000000000 7.862000465393 75 75 75
21.625000000000 8.062500000000 7.863999366760 164 164 164
21.875000000000 8.125000000000 6.883000373840 120 120 120
21.875000000000 8.125000000000 6.968998908997 135 135 135
21.875000000000 8.125000000000 7.086998939514 85 85 85
21.921875000000 8.125000000000 7.867999076843 60 60 60
21.875000000000 8.125000000000 7.873999595642 170 170 170
22.140625000000 8.187500000000 6.897000312805 114 114 114
22.109375000000 8.125000000000 6.911000251770 132 132 132
22.125000000000 8.187500000000 7.877999305725 153 153 153
22.390625000000 8.250000000000 6.770998954773 57 57 57
22.359375000000 8.187500000000 6.793999671936 134 134 134
22.328125000000 8.187500000000 6.815999031067 86 86 86
22.375000000000 8.187500000000 7.866999626160 124 124 124
22.328125000000 8.187500000000 7.869999885559 105 105 105
22.609375000000 8.250000000000 6.645998954773 177 177 177
22.578125000000 8.187500000000 6.664999961853 181 181 181
22.656250000000 8.250000000000 7.872000694275 65 65 65
22.609375000000 8.250000000000 7.879000663757 147 147 147
22.828125000000 8.250000000000 6.454998970032 126 126 126
22.812500000000 8.250000000000 6.511000633240 169 169 169
22.796875000000 8.250000000000 6.546000480652 151 151 151
22.765625000000 8.187500000000 6.578999519348 87 87 87
22.953125000000 8.312500000000 7.881999015808 110 110 110
22.875000000000 8.312500000000 7.858000755310 173 173 173
22.828125000000 8.250000000000 7.856999397278 176 176 176
23.093750000000 8.437500000000 9.777998924255 30 30 30
23.062500000000 8.312500000000 6.327000617981 136 136 136
23.031250000000 8.250000000000 6.370999336243 161 161 161
23.015625000000 8.250000000000 6.411999702454 142 142 142
22.968750000000 8.250000000000 6.417000770569 148 148 148
22.968750000000 8.187500000000 6.483000755310 47 47 47
23.109375000000 8.312500000000 7.827000617981 127 127 127
23.078125000000 8.312500000000 7.865000724792 178 178 178
23.031250000000 8.250000000000 7.886000633240 168 168 168
22.968750000000 8.187500000000 7.894999504089 112 112 112
23.218750000000 8.375000000000 9.505000114441 146 146 146
23.171875000000 8.312500000000 9.549000740051 189 189 189
23.125000000000 8.312500000000 9.610999107361 172 172 172
23.109375000000 8.312500000000 9.782999992371 90 90 90
23.390625000000 8.375000000000 6.164999961853 108 108 108
23.359375000000 8.375000000000 6.196000099182 143 143 143
23.296875000000 8.312500000000 6.195000648499 128 128 128
23.265625000000 8.312500000000 6.220000267029 152 152 152
23.250000000000 8.312500000000 6.280999183655 124 124 124
23.625000000000 8.562500000000 7.071000099182 110 110 110
23.390625000000 8.375000000000 7.751999855042 155 155 155
23.328125000000 8.312500000000 7.762999534607 135 135 135
23.312500000000 8.312500000000 7.835999488831 167 167 167
23.421875000000 8.375000000000 8.161000251770 52 52 52
23.437500000000 8.437500000000 8.297999382019 78 78 78
23.421875000000 8.375000000000 8.397999763489 127 127 127
23.421875000000 8.375000000000 8.529999732971 122 122 122
23.421875000000 8.375000000000 8.665999412537 117 117 117
23.421875000000 8.375000000000 8.813000679016 95 95 95
23.437500000000 8.375000000000 8.974999427795 124 124 124
23.437500000000 8.375000000000 9.130999565125 127 127 127
23.437500000000 8.375000000000 9.293000221252 136 136 136
23.390625000000 8.375000000000 9.367999076843 184 184 184
23.343750000000 8.312500000000 9.415999412537 180 180 180
23.343750000000 8.312500000000 9.581000328064 183 183 183
23.453125000000 8.375000000000 10.037999153137 93 93 93
23.453125000000 8.375000000000 10.241999626160 64 64 64
23.312500000000 8.250000000000 1.420999526978 157 157 157
23.296875000000 8.250000000000 1.473999977112 148 148 148
23.296875000000 8.250000000000 1.522999763489 147 147 147
23.312500000000 8.250000000000 1.567999839783 148 148 148
23.312500000000 8.250000000000 1.614999771118 140 140 140
23.312500000000 8.250000000000 1.659999847412 125 125 125
23.312500000000 8.250000000000 1.708000183105 131 131 131
23.312500000000 8.250000000000 1.751999855042 132 132 132
23.312500000000 8.250000000000 1.793999671936 127 127 127
23.312500000000 8.250000000000 1.842999458313 123 123 123
23.312500000000 8.250000000000 1.883000373840 129 129 129
23.312500000000 8.250000000000 1.929999351501 132 132 132
23.312500000000 8.250000000000 1.970999717712 136 136 136
23.312500000000 8.250000000000 2.015000343323 133 133 133
23.312500000000 8.250000000000 2.060999870300 126 126 126
23.312500000000 8.250000000000 2.101000785828 125 125 125
23.312500000000 8.250000000000 2.141999244690 126 126 126
23.328125000000 8.250000000000 2.178000450134 126 126 126
23.328125000000 8.250000000000 2.221999168396 129 129 129
23.328125000000 8.250000000000 2.261000633240 131 131 131
23.328125000000 8.250000000000 2.299000740051 129 129 129
23.328125000000 8.250000000000 2.342999458313 126 126 126
23.328125000000 8.250000000000 2.380999565125 127 127 127
23.343750000000 8.250000000000 2.418000221252 126 126 126
23.328125000000 8.250000000000 2.461998939514 128 128 128
23.328125000000 8.250000000000 2.498999595642 129 129 129
23.328125000000 8.250000000000 2.536999702454 132 132 132
23.343750000000 8.250000000000 2.572999000549 137 137 137
23.343750000000 8.250000000000 2.613999366760 130 130 130
23.343750000000 8.250000000000 2.651000022888 138 138 138
23.343750000000 8.250000000000 2.689999580383 138 138 138
23.343750000000 8.250000000000 2.727999687195 132 132 132
23.343750000000 8.250000000000 2.765999794006 141 141 141
23.343750000000 8.250000000000 2.803000450134 144 144 144
23.343750000000 8.250000000000 2.839999198914 143 143 143
23.343750000000 8.250000000000 2.876999855042 146 146 146
23.343750000000 8.250000000000 2.914000511169 138 138 138
23.359375000000 8.250000000000 2.949999809265 142 142 142
23.343750000000 8.250000000000 2.987999916077 139 139 139
23.343750000000 8.250000000000 3.025000572205 151 151 151
23.343750000000 8.250000000000 3.061999320984 143 143 143
23.343750000000 8.250000000000 3.098999977112 131 131 131
23.343750000000 8.250000000000 3.134999275208 139 139 139
23.343750000000 8.250000000000 3.171999931335 141 141 141
23.343750000000 8.250000000000 3.207999229431 138 138 138
23.343750000000 8.250000000000 3.244999885559 125 125 125
23.343750000000 8.250000000000 3.282000541687 126 126 126
23.359375000000 8.250000000000 3.317999839783 128 128 128
23.359375000000 8.250000000000 3.355000495911 133 133 133
23.359375000000 8.250000000000 3.390999794006 136 136 136
23.359375000000 8.250000000000 3.428000450134 135 135 135
23.343750000000 8.250000000000 3.463999748230 137 137 137
23.359375000000 8.250000000000 3.501000404358 125 125 125
23.359375000000 8.250000000000 3.537999153137 132 132 132
23.359375000000 8.250000000000 3.574999809265 138 138 138
23.359375000000 8.250000000000 3.612000465393 144 144 144
23.359375000000 8.250000000000 3.647999763489 149 149 149
23.359375000000 8.250000000000 3.685999870300 140 140 140
23.359375000000 8.250000000000 3.723000526428 143 143 143
23.359375000000 8.250000000000 3.761000633240 143 143 143
23.359375000000 8.250000000000 3.799000740051 146 146 146
23.359375000000 8.250000000000 3.835999488831 137 137 137
23.359375000000 8.250000000000 3.873000144958 130 130 130
23.375000000000 8.250000000000 3.911999702454 126 126 126
23.375000000000 8.250000000000 3.952000617981 142 142 142
23.359375000000 8.250000000000 3.987999916077 131 131 131
23.359375000000 8.250000000000 4.026000022888 129 129 129
23.375000000000 8.250000000000 4.064999580383 125 125 125
23.375000000000 8.250000000000 4.102999687195 130 130 130
23.375000000000 8.250000000000 4.144999504089 138 138 138
23.375000000000 8.250000000000 4.181000709534 133 133 133
23.375000000000 8.250000000000 4.220999717712 127 127 127
23.375000000000 8.250000000000 4.261000633240 121 121 121
23.375000000000 8.250000000000 4.301999092102 125 125 125
23.375000000000 8.250000000000 4.342000007629 130 130 130
23.375000000000 8.250000000000 4.383999824524 137 137 137
23.375000000000 8.250000000000 4.425000190735 125 125 125
23.375000000000 8.250000000000 4.466000556946 122 122 122
23.359375000000 8.250000000000 4.502999305725 113 113 113
23.375000000000 8.250000000000 4.550000190735 124 124 124
23.390625000000 8.250000000000 4.595000267029 133 133 133
23.375000000000 8.250000000000 4.637000083923 127 127 127
23.390625000000 8.250000000000 4.682000160217 122 122 122
23.390625000000 8.250000000000 4.727999687195 116 116 116
23.390625000000 8.250000000000 4.768000602722 116 116 116
23.390625000000 8.250000000000 4.817000389099 109 109 109
23.390625000000 8.250000000000 4.863999366760 108 108 108
23.390625000000 8.250000000000 4.907999992371 117 117 117
23.390625000000 8.250000000000 4.953000068665 117 117 117
23.390625000000 8.250000000000 5.005000114441 119 119 119
23.390625000000 8.250000000000 5.053000450134 123 123 123
23.406250000000 8.250000000000 5.101000785828 110 110 110
23.390625000000 8.250000000000 5.147000312805 113 113 113
23.406250000000 8.250000000000 5.199999809265 117 117 117
23.406250000000 8.250000000000 5.251000404358 119 119 119
23.406250000000 8.250000000000 5.300999641418 116 116 116
23.406250000000 8.250000000000 5.352999687195 123 123 123
23.406250000000 8.250000000000 5.408999443054 121 121 121
23.406250000000 8.250000000000 5.460000038147 122 122 122
23.406250000000 8.250000000000 5.516999244690 116 116 116
23.406250000000 8.250000000000 5.575999259949 129 129 129
23.406250000000 8.250000000000 5.627999305725 134 134 134
23.421875000000 8.250000000000 5.699000358582 116 116 116
23.421875000000 8.250000000000 5.751000404358 117 117 117
23.421875000000 8.250000000000 5.807000160217 116 116 116
23.421875000000 8.250000000000 5.869999885559 115 115 115
23.421875000000 8.250000000000 5.932000160217 109 109 109
23.437500000000 8.250000000000 6.005000114441 105 105 105
23.437500000000 8.250000000000 6.067999839783 95 95 95
23.437500000000 8.250000000000 6.130999565125 105 105 105
23.406250000000 8.250000000000 6.172999382019 131 131 131
23.437500000000 8.312500000000 6.279000282288 108 108 108
23.437500000000 8.312500000000 6.343998908997 100 100 100
23.437500000000 8.312500000000 6.414999961853 98 98 98
23.468750000000 8.312500000000 6.508999824524 84 84 84
23.453125000000 8.312500000000 6.581000328064 89 89 89
23.500000000000 8.312500000000 6.703999519348 76 76 76
23.468750000000 8.312500000000 6.748999595642 98 98 98
23.453125000000 8.250000000000 6.796000480652 125 125 125
23.437500000000 8.250000000000 6.873999595642 124 124 124
23.468750000000 8.312500000000 6.992999076843 114 114 114
23.484375000000 8.312500000000 7.101000785828 123 123 123
23.484375000000 8.312500000000 7.196999549866 127 127 127
23.500000000000 8.312500000000 7.293999671936 125 125 125
23.515625000000 8.312500000000 7.414000511169 125 125 125
23.515625000000 8.312500000000 7.530999183655 129 129 129
23.531250000000 8.312500000000 7.641999244690 131 131 131
23.531250000000 8.312500000000 7.751999855042 136 136 136
23.484375000000 8.312500000000 7.770998954773 111 111 111
23.562500000000 8.375000000000 8.016999244690 137 137 137
23.562500000000 8.375000000000 8.144000053406 136 136 136
23.562500000000 8.375000000000 8.256999015808 118 118 118
23.562500000000 8.375000000000 8.369000434875 130 130 130
23.500000000000 8.312500000000 8.372000694275 108 108 108
23.484375000000 8.312500000000 8.494000434875 112 112 112
23.546875000000 8.312500000000 8.741999626160 172 172 172
23.531250000000 8.312500000000 8.863999366760 150 150 150
23.593750000000 8.375000000000 9.116999626160 147 147 147
23.562500000000 8.312500000000 9.217999458313 120 120 120
23.546875000000 8.312500000000 9.352000236511 159 159 159
23.562500000000 8.312500000000 9.557000160217 150 150 150
23.546875000000 8.312500000000 9.690999031067 126 126 126
23.562500000000 8.312500000000 9.888998985291 111 111 111
23.546875000000 8.312500000000 10.056000709534 72 72 72
23.546875000000 8.312500000000 10.240000724792 65 65 65
23.468750000000 8.250000000000 1.364000320435 168 168 168
23.515625000000 8.250000000000 1.369999885559 168 168 168
23.578125000000 8.312500000000 1.380999565125 169 169 169
23.609375000000 8.312500000000 1.409999847412 112 112 112
23.625000000000 8.375000000000 1.458000183105 102 102 102
23.625000000000 8.375000000000 1.506999969482 106 106 106
23.312500000000 8.125000000000 1.758999824524 112 112 112
23.312500000000 8.125000000000 1.812000274658 133 133 133
23.312500000000 8.125000000000 1.854000091553 151 151 151
23.312500000000 8.125000000000 1.895998954773 148 148 148
23.312500000000 8.125000000000 1.939000129700 148 148 148
23.312500000000 8.125000000000 1.983000755310 146 146 146
23.328125000000 8.125000000000 2.022000312805 146 146 146
23.312500000000 8.125000000000 2.068999290466 138 138 138
23.296875000000 8.062500000000 2.119000434875 120 120 120
23.312500000000 8.062500000000 2.154000282288 119 119 119
23.328125000000 8.125000000000 2.189999580383 139 139 139
23.312500000000 8.125000000000 2.231999397278 137 137 137
23.312500000000 8.125000000000 2.270998954773 130 130 130
23.312500000000 8.125000000000 2.313000679016 131 131 131
23.312500000000 8.062500000000 2.355999946594 130 130 130
23.312500000000 8.125000000000 2.393000602722 135 135 135
23.312500000000 8.062500000000 2.432999610901 135 135 135
23.328125000000 8.125000000000 2.467999458313 108 108 108
23.390625000000 8.125000000000 2.483000755310 86 86 86
23.531250000000 8.250000000000 2.476000785828 81 81 81
23.625000000000 8.312500000000 2.487999916077 117 117 117
23.625000000000 8.312500000000 2.530999183655 116 116 116
23.640625000000 8.312500000000 2.571999549866 115 115 115
23.625000000000 8.312500000000 2.615000724792 110 110 110
23.625000000000 8.312500000000 2.658999443054 107 107 107
23.625000000000 8.312500000000 2.700999259949 111 111 111
23.640625000000 8.312500000000 2.741000175476 115 115 115
23.640625000000 8.312500000000 2.782999992371 114 114 114
23.640625000000 8.312500000000 2.822999000549 119 119 119
23.640625000000 8.312500000000 2.865000724792 116 116 116
23.625000000000 8.312500000000 2.907000541687 117 117 117
23.640625000000 8.312500000000 2.947999000549 118 118 118
23.640625000000 8.312500000000 2.987999916077 120 120 120
23.640625000000 8.312500000000 3.029999732971 124 124 124
23.640625000000 8.312500000000 3.071000099182 128 128 128
23.531250000000 8.250000000000 3.119999885559 66 66 66
23.531250000000 8.250000000000 3.158999443054 144 144 144
23.531250000000 8.250000000000 3.197999000549 140 140 140
23.531250000000 8.250000000000 3.237000465393 108 108 108
23.640625000000 8.312500000000 3.273999214172 126 126 126
23.625000000000 8.312500000000 3.314000129700 116 116 116
23.625000000000 8.312500000000 3.353999137878 117 117 117
23.625000000000 8.312500000000 3.394999504089 117 117 117
23.640625000000 8.312500000000 3.435000419617 120 120 120
23.625000000000 8.312500000000 3.476000785828 122 122 122
23.640625000000 8.312500000000 3.516999244690 123 123 123
23.625000000000 8.312500000000 3.556000709534 118 118 118
23.625000000000 8.312500000000 3.596999168396 120 120 120
23.625000000000 8.312500000000 3.637000083923 125 125 125
23.625000000000 8.312500000000 3.678000450134 126 126 126
23.625000000000 8.312500000000 3.717999458313 123 123 123
23.625000000000 8.312500000000 3.758999824524 122 122 122
23.625000000000 8.312500000000 3.800000190735 116 116 116
23.625000000000 8.312500000000 3.841000556946 122 122 122
23.609375000000 8.312500000000 3.880999565125 120 120 120
23.625000000000 8.312500000000 3.922999382019 119 119 119
23.625000000000 8.312500000000 3.963999748230 120 120 120
23.609375000000 8.312500000000 4.002999305725 121 121 121
23.625000000000 8.312500000000 4.047999382019 117 117 117
23.609375000000 8.312500000000 4.088000297546 117 117 117
23.625000000000 8.312500000000 4.130999565125 116 116 116
23.609375000000 8.312500000000 4.171000480652 112 112 112
23.609375000000 8.312500000000 4.213999748230 116 116 116
23.625000000000 8.312500000000 4.258000373840 123 123 123
23.593750000000 8.250000000000 4.292000770569 104 104 104
23.593750000000 8.250000000000 4.332999229431 120 120 120
23.593750000000 8.250000000000 4.376999855042 108 108 108
23.593750000000 8.250000000000 4.418999671936 81 81 81
23.609375000000 8.312500000000 4.470000267029 111 111 111
23.609375000000 8.312500000000 4.513998985291 108 108 108
23.609375000000 8.312500000000 4.563000679016 116 116 116
23.609375000000 8.312500000000 4.608000755310 118 118 118
23.609375000000 8.312500000000 4.654000282288 118 118 118
23.609375000000 8.312500000000 4.696999549866 116 116 116
23.609375000000 8.312500000000 4.744999885559 118 118 118
23.609375000000 8.312500000000 4.792000770569 120 120 120
23.625000000000 8.312500000000 4.842999458313 119 119 119
23.609375000000 8.312500000000 4.887000083923 122 122 122
23.609375000000 8.312500000000 4.936999320984 112 112 112
23.625000000000 8.312500000000 4.987000465393 116 116 116
23.609375000000 8.312500000000 5.035000801086 114 114 114
23.609375000000 8.312500000000 5.085000038147 112 112 112
23.609375000000 8.250000000000 5.133000373840 105 105 105
23.625000000000 8.312500000000 5.189000129700 105 105 105
23.625000000000 8.312500000000 5.242999076843 111 111 111
23.625000000000 8.312500000000 5.293000221252 99 99 99
23.609375000000 8.250000000000 5.343998908997 85 85 85
23.625000000000 8.250000000000 5.398999214172 75 75 75
23.625000000000 8.312500000000 5.457999229431 75 75 75
23.625000000000 8.312500000000 5.512999534607 80 80 80
23.609375000000 8.250000000000 5.556000709534 80 80 80
23.625000000000 8.250000000000 5.622000694275 69 69 69
23.640625000000 8.250000000000 7.037999153137 131 131 131
23.609375000000 8.250000000000 7.081000328064 69 69 69
23.750000000000 8.375000000000 7.556000709534 111 111 111
23.734375000000 8.312500000000 7.616000175476 165 165 165
23.796875000000 8.375000000000 7.825999259949 112 112 112
23.781250000000 8.375000000000 7.917000770569 135 135 135
23.781250000000 8.375000000000 8.026000022888 132 132 132
23.796875000000 8.375000000000 8.167000770569 104 104 104
23.796875000000 8.375000000000 8.279000282288 127 127 127
23.781250000000 8.375000000000 8.369000434875 98 98 98
23.906250000000 8.437500000000 9.574000358582 151 151 151
23.812500000000 8.375000000000 9.560000419617 140 140 140
23.781250000000 8.375000000000 9.667000770569 126 126 126
23.312500000000 7.937500000000 1.770999908447 100 100 100
23.328125000000 7.937500000000 1.810999870300 146 146 146
23.328125000000 7.937500000000 1.849999427795 150 150 150
23.328125000000 7.937500000000 1.894000053406 153 153 153
23.328125000000 7.937500000000 1.939999580383 142 142 142
23.343750000000 7.937500000000 1.980999946594 140 140 140
23.328125000000 7.937500000000 2.026000022888 144 144 144
23.343750000000 7.937500000000 2.065999031067 149 149 149
23.296875000000 7.937500000000 2.126999855042 75 75 75
23.328125000000 7.937500000000 2.152998924255 154 154 154
23.343750000000 7.937500000000 2.190999031067 142 142 142
23.328125000000 7.937500000000 2.234000205994 140 140 140
23.343750000000 7.937500000000 2.270998954773 146 146 146
23.343750000000 7.937500000000 2.311999320984 146 146 146
23.328125000000 7.937500000000 2.353999137878 144 144 144
23.328125000000 7.937500000000 2.391999244690 139 139 139
23.343750000000 7.937500000000 2.431000709534 132 132 132
23.343750000000 7.937500000000 2.468998908997 118 118 118
23.390625000000 8.000000000000 2.487000465393 66 66 66
23.484375000000 8.062500000000 2.497000694275 60 60 60
23.703125000000 8.187500000000 7.088000297546 84 84 84
23.750000000000 8.187500000000 7.623999595642 82 82 82
23.937500000000 8.312500000000 8.022000312805 119 119 119
23.906250000000 8.312500000000 8.074999809265 113 113 113
24.031250000000 8.437500000000 8.398999214172 134 134 134
24.015625000000 8.375000000000 8.480999946594 122 122 122
24.015625000000 8.375000000000 8.606999397278 181 181 181
23.984375000000 8.375000000000 8.682000160217 138 138 138
23.953125000000 8.312500000000 9.813000679016 24 24 24
23.484375000000 7.937500000000 1.767000198364 68 68 68
23.500000000000 7.937500000000 1.803999900818 95 95 95
23.515625000000 7.937500000000 1.847000122070 85 85 85
23.515625000000 7.937500000000 1.893000602722 77 77 77
23.515625000000 7.937500000000 1.938000679016 73 73 73
23.515625000000 7.937500000000 1.984000205994 74 74 74
23.515625000000 7.937500000000 2.025000572205 79 79 79
23.515625000000 7.937500000000 2.067000389099 80 80 80
23.484375000000 7.937500000000 2.130999565125 104 104 104
23.531250000000 7.937500000000 2.151000022888 62 62 62
23.531250000000 7.937500000000 2.193999290466 67 67 67
23.531250000000 7.937500000000 2.237999916077 77 77 77
23.531250000000 7.937500000000 2.280999183655 70 70 70
23.515625000000 7.937500000000 2.324999809265 76 76 76
23.531250000000 7.937500000000 2.362000465393 79 79 79
23.531250000000 7.937500000000 2.404999732971 80 80 80
23.515625000000 7.937500000000 2.449000358582 77 77 77
23.531250000000 7.937500000000 2.485999107361 106 106 106
23.718750000000 8.000000000000 7.077000617981 94 94 94
23.765625000000 8.062500000000 7.616999626160 89 89 89
23.906250000000 8.125000000000 8.035000801086 25 25 25
24.125000000000 8.312500000000 8.637000083923 24 24 24
24.125000000000 8.312500000000 8.765999794006 110 110 110
24.046875000000 8.250000000000 8.755999565125 79 79 79
23.765625000000 8.000000000000 1.762999534607 118 118 118
23.734375000000 7.937500000000 1.823999404907 93 93 93
23.750000000000 8.000000000000 1.866999626160 89 89 89
23.734375000000 7.937500000000 1.919999122620 97 97 97
23.750000000000 8.000000000000 1.963999748230 80 80 80
23.750000000000 8.000000000000 2.006999015808 71 71 71
23.750000000000 8.000000000000 2.054999351501 81 81 81
23.765625000000 8.000000000000 2.099999427795 79 79 79
23.765625000000 8.000000000000 2.144000053406 77 77 77
23.765625000000 8.000000000000 2.190999031067 77 77 77
23.765625000000 8.000000000000 2.235999107361 78 78 78
23.765625000000 8.000000000000 2.282999992371 87 87 87
23.765625000000 8.000000000000 2.328999519348 95 95 95
23.765625000000 8.000000000000 2.373000144958 77 77 77
23.781250000000 8.000000000000 2.411000251770 75 75 75
23.781250000000 8.000000000000 2.457999229431 74 74 74
23.734375000000 7.875000000000 7.085999488831 114 114 114
23.781250000000 7.937500000000 7.616999626160 83 83 83
24.140625000000 8.187500000000 8.770998954773 93 93 93
24.062500000000 8.125000000000 8.755999565125 89 89 89
24.171875000000 8.062500000000 8.785000801086 97 97 97
24.078125000000 8.000000000000 8.748999595642 99 99 99
24.187500000000 7.875000000000 8.773999214172 84 84 84
24.093750000000 7.812500000000 8.751999855042 96 96 96
24.062500000000 8.562500000000 8.777998924255 69 69 69
23.890625000000 8.500000000000 9.786000251770 70 70 70
23.906250000000 8.500000000000 9.667000770569 128 128 128
23.937500000000 8.500000000000 9.543000221252 102 102 102
23.984375000000 8.500000000000 8.742999076843 113 113 113
23.968750000000 8.500000000000 8.602000236511 126 126 126
24.031250000000 8.437500000000 8.564000129700 92 92 92
24.031250000000 8.437500000000 8.436999320984 103 103 103
24.000000000000 8.500000000000 8.272999763489 95 95 95
23.906250000000 8.500000000000 8.036999702454 110 110 110
23.859375000000 8.562500000000 7.859000205994 111 111 111
23.578125000000 8.500000000000 10.241000175476 24 24 24
23.609375000000 8.500000000000 9.578999519348 16 16 16
23.718750000000 8.437500000000 9.601000785828 131 131 131
23.703125000000 8.437500000000 9.410000801086 101 101 101
23.859375000000 8.375000000000 9.537999153137 24 24 24
23.609375000000 8.500000000000 8.282000541687 21 21 21
23.750000000000 8.437500000000 8.372000694275 71 71 71
23.765625000000 8.437500000000 8.272000312805 108 108 108
23.796875000000 8.437500000000 8.206000328064 89 89 89
23.765625000000 8.437500000000 8.050999641418 81 81 81
23.812500000000 8.437500000000 7.985999107361 118 118 118
23.828125000000 8.437500000000 7.908999443054 90 90 90
23.718750000000 8.437500000000 7.654000282288 103 103 103
23.734375000000 8.437500000000 7.575999259949 129 129 129
23.796875000000 8.437500000000 7.554999351501 61 61 61
23.593750000000 8.500000000000 7.040999412537 82 82 82
23.484375000000 8.375000000000 10.214999198914 63 63 63
23.437500000000 8.437500000000 9.901999473572 112 112 112
23.390625000000 8.437500000000 9.616999626160 140 140 140
23.421875000000 8.437500000000 9.488999366760 151 151 151
23.421875000000 8.437500000000 9.336998939514 148 148 148
23.453125000000 8.437500000000 9.230000495911 129 129 129
23.453125000000 8.437500000000 9.067000389099 119 119 119
23.437500000000 8.437500000000 8.907999992371 114 114 114
23.453125000000 8.437500000000 8.770998954773 115 115 115
23.453125000000 8.437500000000 8.644000053406 126 126 126
23.437500000000 8.437500000000 8.477999687195 114 114 114
23.437500000000 8.437500000000 8.358000755310 110 110 110
23.453125000000 8.437500000000 8.251999855042 85 85 85
23.453125000000 8.437500000000 8.129000663757 73 73 73
23.468750000000 8.437500000000 8.035000801086 80 80 80
23.484375000000 8.437500000000 7.946000099182 99 99 99
23.437500000000 8.437500000000 7.772999763489 124 124 124
23.515625000000 8.437500000000 7.763998985291 108 108 108
23.562500000000 8.375000000000 7.734000205994 123 123 123
23.578125000000 8.375000000000 7.650000572205 130 130 130
23.593750000000 8.375000000000 7.561999320984 133 133 133
23.593750000000 8.375000000000 7.473000526428 131 131 131
23.609375000000 8.375000000000 7.384999275208 128 128 128
23.609375000000 8.375000000000 7.300000190735 126 126 126
23.609375000000 8.375000000000 7.203999519348 122 122 122
23.593750000000 8.375000000000 7.102000236511 116 116 116
23.531250000000 8.437500000000 6.933999061584 119 119 119
23.515625000000 8.437500000000 6.835999488831 119 119 119
23.578125000000 8.375000000000 6.827000617981 124 124 124
23.593750000000 8.375000000000 6.772999763489 116 116 116
23.609375000000 8.375000000000 6.696999549866 133 133 133
23.593750000000 8.375000000000 6.610999107361 140 140 140
23.609375000000 8.375000000000 6.543000221252 137 137 137
23.593750000000 8.375000000000 6.464999198914 137 137 137
23.609375000000 8.375000000000 6.400000572205 134 134 134
23.609375000000 8.375000000000 6.328000068665 130 130 130
23.593750000000 8.375000000000 6.251999855042 127 127 127
23.593750000000 8.375000000000 6.185999870300 127 127 127
23.593750000000 8.375000000000 6.110999107361 125 125 125
23.593750000000 8.375000000000 6.046999931335 116 116 116
23.593750000000 8.375000000000 5.980999946594 115 115 115
23.593750000000 8.375000000000 5.917000770569 119 119 119
23.593750000000 8.375000000000 5.859999656677 120 120 120
23.593750000000 8.375000000000 5.796000480652 115 115 115
23.593750000000 8.375000000000 5.744000434875 119 119 119
23.578125000000 8.437500000000 5.668000221252 112 112 112
23.562500000000 8.437500000000 5.602000236511 132 132 132
23.578125000000 8.437500000000 5.553000450134 110 110 110
23.593750000000 8.375000000000 5.505999565125 76 76 76
