9.531250000000 6.312500000000 2.556976318359 96 96 96
9.593750000000 6.375000000000 4.723999023438 61 61 61
9.656250000000 6.375000000000 4.799987792969 82 82 82
9.656250000000 6.437500000000 4.875000000000 87 87 87
9.656250000000 6.437500000000 4.950988769531 94 94 94
9.656250000000 6.437500000000 5.028991699219 87 87 87
9.656250000000 6.437500000000 5.105987548828 94 94 94
9.656250000000 6.375000000000 5.185974121094 183 183 183
9.656250000000 6.375000000000 5.263977050781 155 155 155
9.656250000000 6.375000000000 5.341979980469 141 141 141
9.687500000000 6.437500000000 5.410980224609 200 200 200
9.656250000000 6.437500000000 5.491973876953 134 134 134
9.687500000000 6.437500000000 5.567993164063 125 125 125
9.718750000000 6.437500000000 5.643981933594 118 118 118
9.500000000000 6.500000000000 2.361999511719 198 198 198
9.656250000000 6.562500000000 2.500000000000 103 103 103
9.531250000000 6.500000000000 2.548980712891 80 80 80
9.531250000000 6.500000000000 2.625976562500 53 53 53
9.531250000000 6.500000000000 2.721984863281 74 74 74
9.593750000000 6.500000000000 2.811981201172 76 76 76
9.562500000000 6.500000000000 2.892974853516 74 74 74
9.562500000000 6.500000000000 2.974975585938 89 89 89
9.562500000000 6.500000000000 3.057983398438 110 110 110
9.593750000000 6.500000000000 3.140991210938 117 117 117
9.593750000000 6.562500000000 3.228973388672 126 126 126
9.593750000000 6.562500000000 3.311981201172 113 113 113
9.593750000000 6.562500000000 3.389984130859 102 102 102
9.593750000000 6.562500000000 3.470001220703 111 111 111
9.593750000000 6.562500000000 3.547973632813 101 101 101
9.593750000000 6.562500000000 3.626983642578 110 110 110
9.593750000000 6.562500000000 3.707000732422 108 108 108
9.593750000000 6.562500000000 3.785980224609 119 119 119
9.593750000000 6.562500000000 3.862976074219 129 129 129
9.562500000000 6.500000000000 3.939971923828 132 132 132
9.593750000000 6.500000000000 4.018981933594 145 145 145
9.562500000000 6.500000000000 4.096984863281 142 142 142
9.562500000000 6.500000000000 4.173980712891 169 169 169
9.593750000000 6.500000000000 4.252990722656 150 150 150
9.562500000000 6.500000000000 4.330993652344 159 159 159
9.562500000000 6.500000000000 4.409973144531 162 162 162
9.562500000000 6.500000000000 4.487976074219 184 184 184
9.593750000000 6.500000000000 4.565979003906 184 184 184
9.593750000000 6.500000000000 4.643981933594 162 162 162
9.593750000000 6.500000000000 4.721984863281 145 145 145
9.593750000000 6.500000000000 4.799987792969 133 133 133
9.593750000000 6.500000000000 4.877990722656 122 122 122
9.593750000000 6.562500000000 4.955993652344 120 120 120
9.593750000000 6.562500000000 5.032989501953 120 120 120
9.593750000000 6.562500000000 5.111999511719 110 110 110
9.593750000000 6.562500000000 5.190979003906 177 177 177
9.593750000000 6.562500000000 5.267974853516 169 169 169
9.593750000000 6.562500000000 5.347991943359 178 178 178
9.593750000000 6.500000000000 5.428985595703 185 185 185
9.656250000000 6.625000000000 2.383972167969 175 175 175
9.468750000000 6.562500000000 2.434997558594 155 155 155
9.468750000000 6.562500000000 2.514984130859 179 179 179
9.468750000000 6.562500000000 2.606994628906 123 123 123
9.468750000000 6.562500000000 2.692993164063 119 119 119
9.468750000000 6.562500000000 2.779998779297 110 110 110
9.500000000000 6.562500000000 2.867980957031 106 106 106
9.500000000000 6.562500000000 2.950988769531 97 97 97
9.500000000000 6.562500000000 3.036987304688 51 51 51
9.531250000000 6.625000000000 5.113983154297 189 189 189
9.562500000000 6.625000000000 5.192993164063 199 199 199
9.562500000000 6.625000000000 5.270996093750 198 198 198
9.562500000000 6.625000000000 5.350982666016 188 188 188
9.562500000000 6.625000000000 5.428985595703 192 192 192
9.562500000000 6.625000000000 5.508972167969 185 185 185
9.687500000000 6.812500000000 2.343994140625 193 193 193
9.531250000000 6.687500000000 2.359985351563 99 99 99
9.531250000000 6.750000000000 5.035980224609 161 161 161
9.531250000000 6.750000000000 5.115997314453 199 199 199
9.531250000000 6.750000000000 5.194000244141 200 200 200
9.531250000000 6.750000000000 5.272979736328 59 59 59
9.531250000000 6.750000000000 5.431976318359 197 197 197
9.531250000000 6.750000000000 5.513000488281 194 194 194
9.531250000000 6.750000000000 5.591979980469 185 185 185
9.656250000000 7.000000000000 2.325988769531 186 186 186
9.531250000000 6.875000000000 2.371978759766 162 162 162
9.531250000000 6.875000000000 4.957000732422 72 72 72
9.531250000000 6.875000000000 5.036987304688 193 193 193
9.531250000000 6.875000000000 5.115997314453 201 201 201
9.531250000000 6.875000000000 5.194976806641 131 131 131
9.531250000000 6.875000000000 5.513977050781 189 189 189
9.531250000000 6.875000000000 5.595001220703 183 183 183
9.531250000000 6.875000000000 5.674987792969 182 182 182
9.687500000000 7.062500000000 2.314971923828 191 191 191
9.500000000000 7.000000000000 4.959991455078 174 174 174
9.531250000000 7.000000000000 5.039001464844 199 199 199
9.531250000000 7.000000000000 5.118988037109 177 177 177
9.531250000000 7.000000000000 5.597991943359 187 187 187
9.531250000000 7.000000000000 5.680999755859 84 84 84
9.656250000000 5.812500000000 4.995971679688 142 142 142
9.750000000000 5.750000000000 5.534973144531 209 209 209
9.656250000000 5.812500000000 5.605987548828 102 102 102
9.656250000000 5.875000000000 4.863983154297 156 156 156
9.656250000000 5.875000000000 4.930999755859 213 213 213
9.656250000000 5.937500000000 4.997985839844 209 209 209
9.656250000000 5.937500000000 5.064971923828 203 203 203
9.718750000000 5.937500000000 5.470001220703 213 213 213
9.718750000000 5.937500000000 5.540985107422 218 218 218
9.718750000000 5.937500000000 5.608978271484 211 211 211
9.718750000000 5.937500000000 5.675994873047 114 114 114
9.656250000000 6.062500000000 4.997985839844 210 210 210
9.656250000000 6.062500000000 5.064971923828 202 202 202
9.656250000000 6.062500000000 5.132995605469 207 207 207
9.656250000000 6.062500000000 5.201995849609 130 130 130
9.656250000000 6.000000000000 5.404998779297 213 213 213
9.656250000000 6.000000000000 5.473999023438 225 225 225
9.656250000000 6.000000000000 5.541992187500 222 222 222
9.656250000000 6.000000000000 5.612976074219 65 65 65
9.625000000000 6.250000000000 5.067993164063 207 207 207
9.656250000000 6.187500000000 5.134979248047 207 207 207
9.656250000000 6.187500000000 5.203979492188 212 212 212
9.656250000000 6.187500000000 5.271972656250 198 198 198
9.656250000000 6.187500000000 5.338989257813 218 218 218
9.656250000000 6.187500000000 5.408996582031 222 222 222
9.656250000000 6.187500000000 5.476989746094 218 218 218
9.656250000000 6.312500000000 2.532989501953 179 179 179
9.625000000000 6.250000000000 5.136993408203 189 189 189
9.625000000000 6.250000000000 5.204986572266 208 208 208
9.656250000000 6.312500000000 5.271972656250 223 223 223
9.656250000000 6.312500000000 5.339996337891 218 218 218
9.656250000000 6.312500000000 5.408996582031 214 214 214
9.625000000000 6.250000000000 5.480987548828 67 67 67
9.656250000000 6.312500000000 5.547973632813 76 76 76
9.656250000000 6.312500000000 5.616973876953 79 79 79
9.531250000000 6.500000000000 2.343994140625 157 157 157
9.531250000000 6.500000000000 2.414001464844 165 165 165
9.531250000000 6.500000000000 2.485992431641 161 161 161
9.531250000000 6.500000000000 2.556976318359 166 166 166
9.500000000000 6.500000000000 2.628997802734 156 156 156
9.531250000000 6.500000000000 2.704986572266 154 154 154
9.531250000000 6.500000000000 2.778991699219 156 156 156
9.531250000000 6.500000000000 2.853973388672 152 152 152
9.531250000000 6.500000000000 2.928985595703 163 163 163
9.531250000000 6.500000000000 3.001983642578 163 163 163
9.531250000000 6.500000000000 3.074981689453 156 156 156
9.531250000000 6.500000000000 3.146972656250 153 153 153
9.593750000000 6.437500000000 3.221984863281 144 144 144
9.593750000000 6.437500000000 3.291992187500 129 129 129
9.593750000000 6.437500000000 3.363983154297 120 120 120
9.625000000000 6.437500000000 3.434997558594 121 121 121
9.625000000000 6.437500000000 3.505981445313 123 123 123
9.625000000000 6.437500000000 3.573974609375 122 122 122
9.656250000000 6.437500000000 3.644989013672 127 127 127
9.656250000000 6.437500000000 3.712982177734 139 139 139
9.656250000000 6.437500000000 3.780975341797 154 154 154
9.656250000000 6.500000000000 3.849975585938 161 161 161
9.625000000000 6.437500000000 3.915985107422 170 170 170
9.593750000000 6.437500000000 3.981994628906 172 172 172
9.593750000000 6.437500000000 4.048980712891 175 175 175
9.593750000000 6.437500000000 4.117980957031 162 162 162
9.625000000000 6.437500000000 4.185974121094 158 158 158
9.625000000000 6.437500000000 4.252990722656 143 143 143
9.625000000000 6.437500000000 4.320983886719 152 152 152
9.625000000000 6.437500000000 4.388977050781 155 155 155
9.656250000000 6.437500000000 4.455993652344 161 161 161
9.656250000000 6.437500000000 4.522979736328 178 178 178
9.656250000000 6.500000000000 4.589996337891 165 165 165
9.656250000000 6.500000000000 4.656982421875 169 169 169
9.656250000000 6.500000000000 4.723999023438 166 166 166
9.656250000000 6.500000000000 4.792999267578 167 167 167
9.656250000000 6.437500000000 4.861999511719 158 158 158
9.625000000000 6.437500000000 4.930999755859 170 170 170
9.625000000000 6.437500000000 5.000000000000 171 171 171
9.625000000000 6.437500000000 5.067993164063 155 155 155
9.625000000000 6.437500000000 5.135986328125 177 177 177
9.625000000000 6.437500000000 5.205993652344 193 193 193
9.625000000000 6.437500000000 5.274993896484 192 192 192
9.656250000000 6.437500000000 5.341979980469 186 186 186
9.625000000000 6.437500000000 5.412994384766 176 176 176
9.656250000000 6.437500000000 5.480987548828 139 139 139
9.656250000000 6.437500000000 5.552001953125 122 122 122
9.656250000000 6.500000000000 5.618988037109 119 119 119
9.593750000000 6.625000000000 5.072998046875 129 129 129
9.593750000000 6.625000000000 5.142974853516 197 197 197
9.593750000000 6.625000000000 5.209991455078 211 211 211
9.593750000000 6.625000000000 5.278991699219 215 215 215
9.593750000000 6.625000000000 5.351989746094 200 200 200
9.593750000000 6.625000000000 5.419982910156 200 200 200
9.593750000000 6.625000000000 5.489990234375 196 196 196
9.593750000000 6.625000000000 5.560974121094 162 162 162
9.656250000000 6.687500000000 2.364990234375 183 183 183
9.531250000000 6.687500000000 5.008972167969 148 148 148
9.531250000000 6.750000000000 5.076995849609 217 217 217
9.531250000000 6.750000000000 5.145996093750 212 212 212
9.531250000000 6.750000000000 5.214996337891 215 215 215
9.531250000000 6.750000000000 5.425994873047 194 194 194
9.531250000000 6.750000000000 5.494995117188 195 195 195
9.531250000000 6.750000000000 5.564971923828 193 193 193
9.531250000000 6.750000000000 5.636993408203 192 192 192
9.718750000000 6.875000000000 2.340972900391 184 184 184
9.531250000000 6.875000000000 2.339996337891 190 190 190
9.531250000000 6.875000000000 4.942993164063 178 178 178
9.531250000000 6.875000000000 5.011993408203 222 222 222
9.531250000000 6.875000000000 5.079986572266 204 204 204
9.531250000000 6.875000000000 5.149993896484 214 214 214
9.531250000000 6.875000000000 5.502990722656 170 170 170
9.531250000000 6.875000000000 5.571990966797 192 192 192
9.531250000000 6.875000000000 5.643981933594 187 187 187
9.531250000000 6.875000000000 5.711975097656 189 189 189
9.687500000000 7.000000000000 2.310974121094 180 180 180
9.531250000000 7.000000000000 5.014984130859 156 156 156
9.531250000000 7.000000000000 5.083984375000 210 210 210
9.531250000000 7.000000000000 5.578979492188 71 71 71
9.718750000000 5.937500000000 5.666992187500 147 147 147
9.718750000000 5.937500000000 5.586975097656 179 179 179
9.718750000000 5.937500000000 5.510986328125 179 179 179
9.656250000000 5.937500000000 5.047973632813 159 159 159
9.656250000000 5.937500000000 4.970977783203 134 134 134
9.656250000000 5.937500000000 4.892974853516 125 125 125
9.656250000000 6.000000000000 5.590972900391 141 141 141
9.656250000000 6.000000000000 5.513977050781 135 135 135
9.656250000000 6.000000000000 5.433990478516 124 124 124
9.656250000000 6.062500000000 5.204986572266 61 61 61
9.656250000000 6.062500000000 5.127990722656 136 136 136
9.656250000000 6.062500000000 5.048980712891 135 135 135
9.656250000000 6.062500000000 4.971984863281 121 121 121
9.656250000000 6.187500000000 5.516998291016 140 140 140
9.656250000000 6.187500000000 5.438995361328 134 134 134
9.656250000000 6.187500000000 5.359985351563 132 132 132
9.656250000000 6.250000000000 5.284973144531 111 111 111
9.656250000000 6.250000000000 5.207000732422 145 145 145
9.656250000000 6.250000000000 5.127990722656 139 139 139
9.656250000000 6.250000000000 5.049987792969 66 66 66
9.468750000000 6.312500000000 2.550994873047 129 129 129
9.656250000000 6.250000000000 2.503997802734 110 110 110
9.593750000000 6.375000000000 5.441986083984 138 138 138
9.593750000000 6.375000000000 5.361999511719 144 144 144
9.593750000000 6.375000000000 5.284973144531 148 148 148
9.593750000000 6.375000000000 5.207000732422 142 142 142
9.468750000000 6.500000000000 2.609985351563 110 110 110
9.468750000000 6.500000000000 2.520996093750 182 182 182
9.562500000000 6.375000000000 2.478973388672 176 176 176
9.687500000000 6.437500000000 5.661987304688 149 149 149
9.687500000000 6.437500000000 5.583984375000 139 139 139
9.687500000000 6.437500000000 5.504974365234 146 146 146
9.687500000000 6.437500000000 5.427001953125 155 155 155
9.656250000000 6.437500000000 5.350982666016 142 142 142
9.656250000000 6.437500000000 5.274993896484 144 144 144
9.687500000000 6.437500000000 5.194976806641 140 140 140
9.656250000000 6.437500000000 5.118988037109 144 144 144
9.656250000000 6.437500000000 5.042999267578 149 149 149
9.656250000000 6.437500000000 4.965972900391 145 145 145
9.656250000000 6.437500000000 4.888977050781 154 154 154
9.656250000000 6.437500000000 4.811981201172 143 143 143
9.656250000000 6.437500000000 4.734985351563 145 145 145
9.656250000000 6.437500000000 4.657989501953 137 137 137
9.656250000000 6.500000000000 4.582000732422 140 140 140
9.656250000000 6.437500000000 4.504974365234 139 139 139
9.656250000000 6.500000000000 4.427001953125 144 144 144
9.656250000000 6.500000000000 4.349975585938 145 145 145
9.656250000000 6.500000000000 4.272979736328 137 137 137
9.656250000000 6.500000000000 4.194976806641 142 142 142
9.656250000000 6.500000000000 4.117980957031 142 142 142
9.656250000000 6.500000000000 4.039978027344 136 136 136
9.656250000000 6.500000000000 3.960998535156 152 152 152
9.656250000000 6.500000000000 3.882995605469 137 137 137
9.656250000000 6.500000000000 3.803985595703 141 141 141
9.656250000000 6.500000000000 3.723999023438 132 132 132
9.656250000000 6.500000000000 3.645996093750 139 139 139
9.656250000000 6.500000000000 3.566986083984 134 134 134
9.656250000000 6.500000000000 3.483978271484 132 132 132
9.656250000000 6.500000000000 3.404998779297 137 137 137
9.656250000000 6.500000000000 3.323974609375 132 132 132
9.656250000000 6.500000000000 3.243988037109 132 132 132
9.593750000000 6.562500000000 3.159973144531 131 131 131
9.593750000000 6.562500000000 3.078979492188 136 136 136
9.593750000000 6.562500000000 2.994995117188 128 128 128
9.593750000000 6.562500000000 2.914001464844 132 132 132
9.593750000000 6.500000000000 2.824981689453 135 135 135
9.593750000000 6.562500000000 2.743988037109 130 130 130
9.593750000000 6.500000000000 2.654998779297 131 131 131
9.593750000000 6.562500000000 2.575988769531 142 142 142
9.656250000000 6.500000000000 2.513000488281 142 142 142
9.593750000000 6.500000000000 2.401000976563 131 131 131
9.593750000000 6.500000000000 2.306976318359 148 148 148
9.593750000000 6.625000000000 5.526000976563 131 131 131
9.593750000000 6.625000000000 5.446990966797 185 185 185
9.593750000000 6.625000000000 5.367980957031 140 140 140
9.593750000000 6.625000000000 5.287994384766 142 142 142
9.593750000000 6.625000000000 5.208984375000 187 187 187
9.593750000000 6.625000000000 5.130981445313 180 180 180
9.656250000000 6.625000000000 2.517974853516 179 179 179
9.593750000000 6.625000000000 2.399993896484 152 152 152
9.593750000000 6.812500000000 5.688995361328 71 71 71
9.593750000000 6.812500000000 5.609985351563 135 135 135
9.593750000000 6.812500000000 5.528991699219 184 184 184
9.593750000000 6.812500000000 5.448974609375 95 95 95
9.593750000000 6.812500000000 5.210998535156 147 147 147
9.593750000000 6.812500000000 5.132995605469 172 172 172
9.593750000000 6.812500000000 5.053985595703 156 156 156
9.593750000000 6.750000000000 2.322998046875 180 180 180
9.593750000000 7.000000000000 5.773986816406 20 20 20
9.593750000000 7.000000000000 5.694000244141 136 136 136
9.593750000000 7.000000000000 5.614990234375 136 136 136
9.593750000000 7.000000000000 5.533996582031 30 30 30
9.593750000000 7.000000000000 5.133972167969 137 137 137
9.562500000000 7.000000000000 5.055999755859 179 179 179
9.500000000000 7.000000000000 4.976989746094 130 130 130
9.687500000000 6.812500000000 2.354980468750 181 181 181
9.718750000000 7.000000000000 2.363983154297 190 190 190
9.562500000000 7.000000000000 2.313995361328 167 167 167
9.531250000000 7.000000000000 4.985992431641 168 168 168
9.531250000000 7.000000000000 5.064971923828 200 200 200
9.531250000000 7.000000000000 5.143981933594 138 138 138
9.531250000000 7.000000000000 5.622985839844 183 183 183
9.718750000000 7.000000000000 2.375000000000 193 193 193
9.531250000000 6.937500000000 4.984985351563 183 183 183
9.531250000000 6.937500000000 5.064971923828 193 193 193
9.531250000000 6.937500000000 5.142974853516 200 200 200
9.531250000000 6.875000000000 5.540985107422 187 187 187
9.531250000000 6.875000000000 5.620971679688 185 185 185
9.531250000000 6.875000000000 5.701995849609 185 185 185
9.718750000000 6.875000000000 2.368988037109 194 194 194
9.531250000000 6.812500000000 5.062988281250 198 198 198
9.531250000000 6.812500000000 5.141998291016 198 198 198
9.562500000000 6.812500000000 5.220977783203 199 199 199
9.562500000000 6.812500000000 5.458984375000 189 189 189
9.562500000000 6.812500000000 5.537994384766 199 199 199
9.562500000000 6.812500000000 5.618988037109 189 189 189
9.593750000000 6.812500000000 5.695983886719 37 37 37
9.718750000000 6.750000000000 2.371978759766 193 193 193
9.593750000000 6.625000000000 5.140991210938 199 199 199
9.593750000000 6.625000000000 5.218994140625 198 198 198
9.593750000000 6.625000000000 5.297973632813 185 185 185
9.593750000000 6.625000000000 5.378997802734 184 184 184
9.593750000000 6.625000000000 5.457977294922 199 199 199
9.593750000000 6.625000000000 5.535980224609 191 191 191
9.593750000000 6.625000000000 5.612976074219 87 87 87
9.593750000000 6.625000000000 2.323974609375 123 123 123
9.656250000000 6.625000000000 2.428985595703 116 116 116
9.593750000000 6.625000000000 2.495971679688 109 109 109
9.593750000000 6.625000000000 2.584991455078 133 133 133
9.593750000000 6.562500000000 2.661987304688 118 118 118
9.593750000000 6.562500000000 2.743988037109 126 126 126
9.562500000000 6.562500000000 2.824981689453 124 124 124
9.531250000000 6.562500000000 2.905975341797 137 137 137
9.531250000000 6.562500000000 2.987976074219 145 145 145
9.531250000000 6.562500000000 3.071990966797 146 146 146
9.562500000000 6.562500000000 3.155975341797 154 154 154
9.562500000000 6.562500000000 3.239990234375 152 152 152
9.562500000000 6.562500000000 3.320983886719 144 144 144
9.562500000000 6.562500000000 3.401000976563 140 140 140
9.531250000000 6.562500000000 3.480987548828 125 125 125
9.562500000000 6.562500000000 3.563995361328 119 119 119
9.562500000000 6.562500000000 3.643981933594 111 111 111
9.593750000000 6.562500000000 3.724975585938 106 106 106
9.562500000000 6.562500000000 3.802978515625 108 108 108
9.593750000000 6.562500000000 3.883972167969 104 104 104
9.562500000000 6.562500000000 3.961975097656 99 99 99
9.593750000000 6.562500000000 4.041992187500 74 74 74
9.593750000000 6.625000000000 5.138977050781 94 94 94
9.593750000000 6.625000000000 5.217987060547 199 199 199
9.593750000000 6.625000000000 5.294982910156 196 196 196
9.593750000000 6.625000000000 5.375000000000 193 193 193
9.593750000000 6.625000000000 5.453979492188 191 191 191
9.593750000000 6.625000000000 5.530975341797 120 120 120
9.562500000000 6.375000000000 2.401000976563 205 205 205
9.437500000000 6.437500000000 2.461975097656 230 230 230
9.468750000000 6.437500000000 2.560974121094 100 100 100
9.593750000000 6.437500000000 3.245971679688 24 24 24
9.593750000000 6.437500000000 3.326995849609 68 68 68
9.625000000000 6.437500000000 3.414001464844 87 87 87
9.656250000000 6.500000000000 3.500976562500 85 85 85
9.656250000000 6.500000000000 3.578979492188 82 82 82
9.656250000000 6.437500000000 3.656982421875 82 82 82
9.656250000000 6.437500000000 3.734985351563 95 95 95
9.656250000000 6.437500000000 3.812988281250 98 98 98
9.656250000000 6.437500000000 3.891998291016 112 112 112
9.656250000000 6.500000000000 3.971984863281 123 123 123
9.656250000000 6.500000000000 4.050994873047 142 142 142
9.656250000000 6.500000000000 4.127990722656 137 137 137
9.656250000000 6.500000000000 4.205993652344 122 122 122
9.656250000000 6.500000000000 4.282989501953 108 108 108
9.656250000000 6.500000000000 4.359985351563 118 118 118
9.656250000000 6.500000000000 4.436981201172 104 104 104
9.656250000000 6.500000000000 4.513977050781 119 119 119
9.656250000000 6.500000000000 4.590972900391 118 118 118
9.656250000000 6.500000000000 4.667999267578 114 114 114
9.656250000000 6.500000000000 4.744995117188 120 120 120
9.656250000000 6.500000000000 4.821990966797 129 129 129
9.656250000000 6.500000000000 4.899993896484 114 114 114
9.656250000000 6.500000000000 4.977996826172 126 126 126
9.656250000000 6.500000000000 5.054992675781 135 135 135
9.656250000000 6.437500000000 5.133972167969 158 158 158
9.656250000000 6.500000000000 5.210998535156 142 142 142
9.656250000000 6.500000000000 5.289001464844 137 137 137
9.656250000000 6.500000000000 5.366973876953 140 140 140
9.656250000000 6.500000000000 5.445983886719 152 152 152
9.656250000000 6.500000000000 5.523986816406 140 140 140
9.656250000000 6.500000000000 5.603973388672 143 143 143
9.656250000000 6.500000000000 5.681976318359 103 103 103
9.593750000000 6.375000000000 2.518981933594 209 209 209
9.500000000000 6.312500000000 2.571990966797 85 85 85
9.562500000000 6.375000000000 5.136993408203 136 136 136
9.562500000000 6.375000000000 5.214996337891 193 193 193
9.593750000000 6.375000000000 5.291992187500 186 186 186
9.593750000000 6.375000000000 5.367980957031 179 179 179
9.593750000000 6.375000000000 5.446990966797 181 181 181
9.437500000000 6.125000000000 2.461975097656 255 255 255
9.656250000000 6.250000000000 5.057983398438 125 125 125
9.656250000000 6.250000000000 5.134979248047 194 194 194
9.656250000000 6.250000000000 5.211975097656 195 195 195
9.656250000000 6.250000000000 5.290985107422 182 182 182
9.656250000000 6.250000000000 5.366973876953 173 173 173
9.656250000000 6.250000000000 5.444976806641 163 163 163
9.656250000000 6.250000000000 5.522979736328 175 175 175
9.656250000000 6.062500000000 4.978973388672 113 113 113
9.656250000000 6.125000000000 5.055999755859 190 190 190
9.656250000000 6.125000000000 5.132995605469 194 194 194
9.656250000000 6.125000000000 5.209991455078 186 186 186
9.718750000000 6.125000000000 5.360992431641 60 60 60
9.656250000000 6.125000000000 5.441986083984 162 162 162
9.687500000000 6.125000000000 5.519989013672 162 162 162
9.687500000000 6.125000000000 5.598999023438 142 142 142
9.593750000000 6.000000000000 4.901000976563 95 95 95
9.593750000000 6.000000000000 4.978973388672 194 194 194
9.593750000000 6.000000000000 5.055999755859 191 191 191
9.593750000000 6.000000000000 5.132995605469 188 188 188
9.656250000000 6.000000000000 5.439971923828 148 148 148
9.656250000000 6.000000000000 5.518981933594 196 196 196
9.656250000000 6.000000000000 5.595977783203 180 180 180
9.656250000000 6.000000000000 5.672973632813 48 48 48
9.687500000000 5.875000000000 4.977996826172 191 191 191
9.718750000000 5.875000000000 5.053985595703 189 189 189
9.718750000000 5.937500000000 5.517974853516 190 190 190
9.718750000000 5.937500000000 5.595001220703 198 198 198
9.718750000000 5.937500000000 5.670989990234 186 186 186
9.656250000000 7.125000000000 2.326995849609 175 175 175
9.687500000000 7.000000000000 2.340972900391 179 179 179
9.500000000000 7.000000000000 4.966979980469 194 194 194
9.500000000000 7.000000000000 5.036987304688 209 209 209
9.500000000000 7.000000000000 5.106994628906 208 208 208
9.593750000000 7.000000000000 5.596984863281 192 192 192
9.593750000000 7.000000000000 5.669982910156 182 182 182
9.718750000000 6.875000000000 2.361999511719 187 187 187
9.468750000000 6.875000000000 2.319976806641 182 182 182
9.531250000000 6.875000000000 4.965972900391 117 117 117
9.531250000000 6.875000000000 5.034973144531 218 218 218
9.531250000000 6.875000000000 5.103973388672 212 212 212
9.531250000000 6.875000000000 5.172973632813 214 214 214
9.531250000000 6.875000000000 5.522979736328 195 195 195
9.531250000000 6.875000000000 5.595977783203 193 193 193
9.531250000000 6.875000000000 5.666992187500 190 190 190
9.531250000000 6.875000000000 5.737976074219 161 161 161
9.593750000000 6.750000000000 2.388000488281 181 181 181
9.531250000000 6.687500000000 5.033996582031 148 148 148
9.531250000000 6.687500000000 5.102996826172 192 192 192
9.531250000000 6.687500000000 5.171997070313 216 216 216
9.531250000000 6.750000000000 5.240997314453 218 218 218
9.531250000000 6.750000000000 5.449981689453 203 203 203
9.531250000000 6.750000000000 5.520996093750 197 197 197
9.531250000000 6.750000000000 5.591979980469 187 187 187
9.531250000000 6.750000000000 5.659973144531 114 114 114
9.406250000000 6.625000000000 2.328979492188 192 192 192
9.593750000000 6.625000000000 5.100982666016 159 159 159
9.593750000000 6.625000000000 5.167999267578 203 203 203
9.593750000000 6.625000000000 5.236999511719 203 203 203
9.593750000000 6.625000000000 5.305999755859 218 218 218
9.593750000000 6.625000000000 5.376983642578 202 202 202
9.593750000000 6.625000000000 5.446990966797 196 196 196
9.593750000000 6.625000000000 5.517974853516 194 194 194
9.593750000000 6.625000000000 5.585998535156 83 83 83
9.562500000000 6.500000000000 2.304992675781 123 123 123
9.562500000000 6.500000000000 2.379974365234 138 138 138
9.593750000000 6.500000000000 2.459991455078 145 145 145
9.593750000000 6.500000000000 2.533996582031 150 150 150
9.562500000000 6.500000000000 2.602996826172 141 141 141
9.531250000000 6.500000000000 2.672973632813 115 115 115
9.531250000000 6.500000000000 2.746978759766 107 107 107
9.531250000000 6.500000000000 2.819000244141 105 105 105
9.562500000000 6.500000000000 2.895996093750 102 102 102
9.593750000000 6.500000000000 2.972991943359 134 134 134
9.593750000000 6.562500000000 3.045989990234 125 125 125
9.593750000000 6.500000000000 3.115997314453 136 136 136
9.656250000000 6.500000000000 3.189971923828 140 140 140
9.656250000000 6.500000000000 3.256988525391 144 144 144
9.562500000000 6.500000000000 3.322998046875 145 145 145
9.562500000000 6.500000000000 3.389984130859 137 137 137
9.531250000000 6.500000000000 3.458984375000 140 140 140
9.531250000000 6.500000000000 3.527984619141 135 135 135
9.562500000000 6.500000000000 3.597991943359 136 136 136
9.562500000000 6.500000000000 3.667999267578 141 141 141
9.593750000000 6.500000000000 3.737976074219 128 128 128
9.562500000000 6.500000000000 3.804992675781 147 147 147
9.593750000000 6.500000000000 3.873992919922 156 156 156
9.562500000000 6.500000000000 3.941986083984 153 153 153
9.656250000000 6.437500000000 4.010986328125 176 176 176
9.656250000000 6.437500000000 4.077972412109 170 170 170
9.656250000000 6.500000000000 4.145996093750 163 163 163
9.593750000000 6.500000000000 4.212982177734 172 172 172
9.562500000000 6.500000000000 4.280975341797 164 164 164
9.562500000000 6.500000000000 4.347991943359 166 166 166
9.531250000000 6.500000000000 4.415985107422 169 169 169
9.562500000000 6.500000000000 4.483978271484 179 179 179
9.562500000000 6.500000000000 4.552001953125 195 195 195
9.562500000000 6.500000000000 4.618988037109 167 167 167
9.562500000000 6.500000000000 4.686981201172 158 158 158
9.562500000000 6.500000000000 4.753997802734 159 159 159
9.562500000000 6.500000000000 4.822998046875 155 155 155
9.656250000000 6.437500000000 4.889984130859 154 154 154
9.625000000000 6.437500000000 4.958984375000 153 153 153
9.562500000000 6.500000000000 5.027984619141 149 149 149
9.625000000000 6.437500000000 5.095977783203 140 140 140
9.656250000000 6.437500000000 5.164001464844 180 180 180
9.625000000000 6.437500000000 5.233978271484 200 200 200
9.625000000000 6.437500000000 5.302978515625 201 201 201
9.656250000000 6.437500000000 5.369995117188 196 196 196
9.625000000000 6.437500000000 5.441986083984 184 184 184
9.656250000000 6.437500000000 5.507995605469 81 81 81
9.656250000000 6.500000000000 5.576995849609 46 46 46
9.656250000000 6.437500000000 5.648986816406 19 19 19
9.406250000000 6.375000000000 2.321990966797 159 159 159
9.562500000000 6.375000000000 2.453979492188 114 114 114
9.593750000000 6.375000000000 2.541992187500 105 105 105
9.593750000000 6.375000000000 4.416992187500 34 34 34
9.593750000000 6.375000000000 4.483978271484 62 62 62
9.562500000000 6.375000000000 4.552001953125 81 81 81
9.593750000000 6.375000000000 4.618988037109 94 94 94
9.593750000000 6.375000000000 4.686981201172 101 101 101
9.593750000000 6.375000000000 4.753997802734 93 93 93
9.593750000000 6.375000000000 4.820983886719 99 99 99
9.593750000000 6.375000000000 4.889984130859 97 97 97
9.593750000000 6.375000000000 4.955993652344 98 98 98
9.593750000000 6.375000000000 5.024993896484 100 100 100
9.593750000000 6.375000000000 5.092987060547 101 101 101
9.593750000000 6.375000000000 5.164001464844 178 178 178
9.593750000000 6.375000000000 5.231994628906 200 200 200
9.593750000000 6.375000000000 5.299987792969 214 214 214
9.593750000000 6.375000000000 5.367980957031 206 206 206
9.593750000000 6.375000000000 5.435974121094 196 196 196
9.656250000000 6.312500000000 5.504974365234 133 133 133
9.593750000000 6.375000000000 5.575988769531 145 145 145
9.656250000000 6.312500000000 5.641998291016 117 117 117
9.468750000000 6.250000000000 2.580993652344 240 240 240
9.656250000000 6.250000000000 5.092987060547 197 197 197
9.656250000000 6.250000000000 5.160980224609 209 209 209
9.656250000000 6.250000000000 5.228973388672 204 204 204
9.656250000000 6.250000000000 5.295989990234 203 203 203
9.656250000000 6.250000000000 5.365997314453 238 238 238
9.656250000000 6.250000000000 5.433990478516 220 220 220
9.656250000000 6.250000000000 5.502990722656 218 218 218
9.656250000000 6.125000000000 5.022979736328 208 208 208
9.656250000000 6.125000000000 5.091979980469 212 212 212
9.656250000000 6.125000000000 5.159973144531 215 215 215
9.656250000000 6.125000000000 5.226989746094 204 204 204
9.656250000000 6.125000000000 5.363983154297 178 178 178
9.656250000000 6.125000000000 5.430999755859 216 216 216
9.656250000000 6.125000000000 5.500000000000 223 223 223
9.656250000000 6.125000000000 5.569000244141 217 217 217
9.593750000000 6.000000000000 4.953979492188 211 211 211
9.593750000000 6.000000000000 5.021972656250 206 206 206
9.593750000000 6.000000000000 5.089996337891 207 207 207
9.593750000000 6.000000000000 5.156982421875 192 192 192
9.687500000000 5.937500000000 5.427001953125 184 184 184
9.687500000000 5.937500000000 5.496978759766 215 215 215
9.687500000000 5.937500000000 5.565979003906 222 222 222
9.718750000000 5.937500000000 5.633972167969 219 219 219
9.687500000000 5.875000000000 4.885986328125 63 63 63
9.687500000000 5.875000000000 4.952972412109 209 209 209
9.687500000000 5.875000000000 5.019989013672 208 208 208
9.687500000000 5.875000000000 5.087982177734 154 154 154
9.718750000000 5.875000000000 5.493988037109 192 192 192
9.718750000000 5.875000000000 5.561981201172 206 206 206
9.718750000000 5.937500000000 5.629974365234 222 222 222
9.718750000000 5.875000000000 5.696990966797 211 211 211
9.593750000000 7.812500000000 2.330993652344 174 174 174
9.718750000000 7.000000000000 2.381988525391 182 182 182
9.531250000000 7.000000000000 5.722991943359 80 80 80
9.531250000000 7.000000000000 5.643981933594 133 133 133
9.531250000000 7.000000000000 5.161987304688 51 51 51
9.531250000000 7.000000000000 5.083984375000 190 190 190
9.531250000000 7.000000000000 5.004974365234 106 106 106
9.718750000000 6.875000000000 2.380981445313 182 182 182
9.531250000000 6.875000000000 5.720001220703 113 113 113
9.531250000000 6.875000000000 5.639984130859 131 131 131
9.531250000000 6.875000000000 5.558990478516 173 173 173
9.531250000000 6.875000000000 5.240997314453 26 26 26
9.531250000000 6.875000000000 5.160980224609 200 200 200
9.531250000000 6.875000000000 5.082000732422 136 136 136
9.531250000000 6.875000000000 5.003997802734 112 112 112
9.625000000000 6.750000000000 2.366973876953 186 186 186
9.531250000000 6.750000000000 5.638000488281 111 111 111
9.531250000000 6.750000000000 5.556976318359 135 135 135
9.531250000000 6.750000000000 5.476989746094 189 189 189
9.531250000000 6.750000000000 5.396972656250 44 44 44
9.531250000000 6.750000000000 5.238983154297 187 187 187
9.531250000000 6.750000000000 5.159973144531 187 187 187
9.531250000000 6.750000000000 5.080993652344 129 129 129
9.718750000000 6.625000000000 2.563995361328 92 92 92
9.406250000000 6.875000000000 2.350982666016 168 168 168
9.531250000000 6.687500000000 2.317993164063 170 170 170
9.593750000000 6.625000000000 5.554992675781 105 105 105
9.593750000000 6.625000000000 5.475982666016 143 143 143
9.593750000000 6.625000000000 5.395996093750 141 141 141
9.593750000000 6.625000000000 5.314971923828 180 180 180
9.593750000000 6.625000000000 5.236999511719 179 179 179
9.593750000000 6.625000000000 5.158996582031 147 147 147
9.593750000000 6.625000000000 2.772979736328 13 13 13
9.593750000000 6.625000000000 2.687988281250 16 16 16
9.593750000000 6.625000000000 2.597991943359 205 205 205
9.593750000000 6.562500000000 2.524993896484 93 93 93
9.531250000000 6.625000000000 2.405975341797 188 188 188
9.531250000000 6.562500000000 2.311981201172 171 171 171
9.656250000000 6.437500000000 5.695983886719 84 84 84
9.656250000000 6.437500000000 5.619995117188 156 156 156
9.656250000000 6.437500000000 5.541992187500 164 164 164
9.656250000000 6.437500000000 5.462982177734 160 160 160
9.656250000000 6.375000000000 5.386993408203 167 167 167
9.656250000000 6.375000000000 5.307983398438 159 159 159
9.656250000000 6.375000000000 5.229980468750 159 159 159
9.656250000000 6.375000000000 5.152984619141 158 158 158
9.656250000000 6.375000000000 5.074981689453 158 158 158
9.625000000000 6.437500000000 4.997985839844 161 161 161
9.625000000000 6.437500000000 4.920989990234 168 168 168
9.656250000000 6.437500000000 4.841979980469 158 158 158
9.625000000000 6.437500000000 4.764984130859 165 165 165
9.625000000000 6.437500000000 4.687988281250 166 166 166
9.625000000000 6.437500000000 4.609985351563 153 153 153
9.625000000000 6.437500000000 4.531982421875 162 162 162
9.625000000000 6.437500000000 4.453979492188 148 148 148
9.593750000000 6.437500000000 4.375976562500 165 165 165
9.593750000000 6.437500000000 4.297973632813 162 162 162
9.593750000000 6.437500000000 4.218994140625 160 160 160
9.593750000000 6.437500000000 4.140991210938 161 161 161
9.593750000000 6.437500000000 4.061981201172 153 153 153
9.593750000000 6.437500000000 3.983001708984 158 158 158
9.593750000000 6.437500000000 3.903991699219 152 152 152
9.593750000000 6.437500000000 3.823974609375 154 154 154
9.531250000000 6.500000000000 3.743988037109 144 144 144
9.593750000000 6.437500000000 3.664978027344 142 142 142
9.531250000000 6.500000000000 3.582977294922 146 146 146
9.531250000000 6.500000000000 3.501983642578 146 146 146
9.531250000000 6.500000000000 3.419982910156 146 146 146
9.531250000000 6.500000000000 3.340972900391 141 141 141
9.531250000000 6.500000000000 3.255981445313 143 143 143
9.531250000000 6.500000000000 3.173980712891 147 147 147
9.531250000000 6.500000000000 3.088989257813 153 153 153
9.531250000000 6.500000000000 3.005981445313 149 149 149
9.531250000000 6.500000000000 2.922973632813 141 141 141
9.531250000000 6.500000000000 2.836975097656 138 138 138
9.531250000000 6.500000000000 2.750976562500 139 139 139
9.531250000000 6.500000000000 2.665985107422 138 138 138
9.593750000000 6.437500000000 2.598999023438 157 157 157
9.593750000000 6.437500000000 2.513000488281 151 151 151
9.531250000000 6.500000000000 2.419982910156 150 150 150
9.531250000000 6.500000000000 2.320983886719 163 163 163
9.656250000000 6.312500000000 5.468994140625 132 132 132
9.656250000000 6.312500000000 5.389984130859 142 142 142
9.656250000000 6.312500000000 5.312988281250 134 134 134
9.625000000000 6.250000000000 5.235992431641 140 140 140
9.625000000000 6.250000000000 5.155975341797 115 115 115
9.343750000000 6.500000000000 2.614990234375 108 108 108
9.593750000000 6.250000000000 2.522979736328 110 110 110
9.656250000000 6.187500000000 5.543975830078 137 137 137
9.656250000000 6.187500000000 5.465972900391 138 138 138
9.656250000000 6.187500000000 5.388000488281 126 126 126
9.656250000000 6.250000000000 5.233978271484 140 140 140
9.656250000000 6.250000000000 5.156982421875 130 130 130
9.656250000000 6.250000000000 5.077972412109 127 127 127
9.656250000000 6.000000000000 5.618988037109 144 144 144
9.656250000000 6.000000000000 5.540985107422 134 134 134
9.656250000000 6.000000000000 5.460998535156 131 131 131
9.656250000000 6.062500000000 5.153991699219 132 132 132
9.656250000000 6.062500000000 5.075988769531 129 129 129
9.656250000000 6.062500000000 5.000000000000 130 130 130
9.718750000000 5.937500000000 5.692993164063 146 146 146
9.718750000000 5.937500000000 5.613983154297 174 174 174
9.718750000000 5.937500000000 5.537994384766 185 185 185
9.656250000000 5.937500000000 5.073974609375 148 148 148
9.656250000000 5.937500000000 4.997985839844 160 160 160
9.656250000000 5.937500000000 4.919982910156 119 119 119
21.468750000000 12.250000000000 5.687988281250 225 225 225
21.437500000000 12.250000000000 5.614990234375 224 224 224
21.437500000000 12.250000000000 5.544982910156 223 223 223
21.468750000000 12.187500000000 5.138977050781 33 33 33
21.468750000000 12.250000000000 5.064971923828 223 223 223
21.468750000000 12.250000000000 4.996978759766 247 247 247
21.468750000000 12.250000000000 4.929992675781 238 238 238
21.468750000000 12.375000000000 5.620971679688 231 231 231
21.468750000000 12.375000000000 5.549987792969 230 230 230
21.468750000000 12.375000000000 5.478973388672 206 206 206
21.468750000000 12.375000000000 5.409973144531 126 126 126
21.468750000000 12.375000000000 5.204986572266 131 131 131
21.468750000000 12.375000000000 5.136993408203 220 220 220
21.468750000000 12.375000000000 5.069000244141 255 255 255
21.468750000000 12.375000000000 5.001983642578 255 255 255
21.468750000000 12.500000000000 5.553985595703 231 231 231
21.468750000000 12.500000000000 5.483978271484 229 229 229
21.468750000000 12.500000000000 5.414001464844 220 220 220
21.468750000000 12.500000000000 5.342987060547 199 199 199
21.468750000000 12.500000000000 5.273986816406 184 184 184
21.468750000000 12.500000000000 5.205993652344 212 212 212
21.468750000000 12.500000000000 5.138000488281 226 226 226
21.468750000000 12.500000000000 5.069976806641 238 238 238
21.468750000000 12.625000000000 5.486999511719 232 232 232
21.468750000000 12.625000000000 5.415985107422 232 232 232
21.468750000000 12.625000000000 5.347991943359 242 242 242
21.468750000000 12.625000000000 5.277984619141 236 236 236
21.468750000000 12.625000000000 5.207977294922 221 221 221
21.468750000000 12.625000000000 5.138977050781 230 230 230
21.468750000000 12.625000000000 3.185974121094 29 29 29
21.468750000000 12.625000000000 3.116973876953 64 64 64
21.468750000000 12.625000000000 3.045989990234 81 81 81
21.468750000000 12.625000000000 2.973999023438 108 108 108
21.468750000000 12.625000000000 2.902984619141 124 124 124
21.468750000000 12.625000000000 2.832977294922 123 123 123
21.468750000000 12.625000000000 2.764984130859 122 122 122
21.468750000000 12.625000000000 2.691986083984 129 129 129
21.468750000000 12.625000000000 2.617980957031 123 123 123
21.468750000000 12.625000000000 2.544982910156 125 125 125
21.500000000000 12.625000000000 2.451995849609 213 213 213
21.406250000000 12.812500000000 5.675994873047 67 67 67
21.406250000000 12.812500000000 5.608001708984 136 136 136
21.406250000000 12.812500000000 5.537994384766 114 114 114
21.406250000000 12.812500000000 5.465972900391 126 126 126
21.406250000000 12.750000000000 5.393981933594 220 220 220
21.468750000000 12.812500000000 5.336975097656 194 194 194
21.468750000000 12.812500000000 5.267974853516 200 200 200
21.406250000000 12.812500000000 5.194000244141 233 233 233
21.406250000000 12.750000000000 5.126983642578 106 106 106
21.406250000000 12.812500000000 5.060974121094 113 113 113
21.437500000000 12.812500000000 4.995971679688 107 107 107
21.437500000000 12.812500000000 4.927978515625 112 112 112
21.437500000000 12.812500000000 4.862976074219 115 115 115
21.468750000000 12.812500000000 4.796997070313 131 131 131
21.468750000000 12.812500000000 4.730987548828 141 141 141
21.468750000000 12.812500000000 4.664001464844 154 154 154
21.437500000000 12.812500000000 4.596984863281 157 157 157
21.437500000000 12.812500000000 4.529998779297 161 161 161
21.437500000000 12.812500000000 4.463989257813 166 166 166
21.437500000000 12.812500000000 4.397979736328 167 167 167
21.437500000000 12.812500000000 4.332000732422 177 177 177
21.468750000000 12.812500000000 4.264984130859 188 188 188
21.468750000000 12.812500000000 4.198974609375 170 170 170
21.468750000000 12.812500000000 4.131988525391 175 175 175
21.468750000000 12.812500000000 4.064971923828 169 169 169
21.468750000000 12.812500000000 3.997985839844 171 171 171
21.468750000000 12.812500000000 3.930999755859 178 178 178
21.468750000000 12.812500000000 3.863983154297 175 175 175
21.468750000000 12.812500000000 3.795989990234 167 167 167
21.468750000000 12.812500000000 3.728973388672 163 163 163
21.468750000000 12.812500000000 3.661987304688 158 158 158
21.468750000000 12.812500000000 3.593994140625 159 159 159
21.468750000000 12.812500000000 3.524993896484 158 158 158
21.468750000000 12.812500000000 3.457977294922 150 150 150
21.468750000000 12.812500000000 3.389984130859 151 151 151
21.468750000000 12.812500000000 3.321990966797 149 149 149
21.468750000000 12.812500000000 3.250976562500 144 144 144
21.468750000000 12.812500000000 3.181976318359 148 148 148
21.468750000000 12.812500000000 3.112976074219 139 139 139
21.531250000000 12.812500000000 3.030975341797 195 195 195
21.468750000000 12.812500000000 2.973999023438 124 124 124
21.468750000000 12.812500000000 2.901000976563 119 119 119
21.468750000000 12.812500000000 2.828979492188 102 102 102
21.468750000000 12.812500000000 2.758972167969 81 81 81
21.468750000000 12.812500000000 2.687988281250 35 35 35
21.531250000000 12.812500000000 2.435974121094 221 221 221
21.468750000000 12.875000000000 5.486999511719 219 219 219
21.468750000000 12.875000000000 5.416992187500 220 220 220
21.500000000000 12.875000000000 5.348999023438 229 229 229
21.500000000000 12.875000000000 5.279998779297 226 226 226
21.500000000000 12.875000000000 5.211975097656 254 254 254
21.468750000000 12.875000000000 5.141998291016 245 245 245
21.406250000000 12.937500000000 2.480987548828 174 174 174
21.500000000000 13.000000000000 5.557983398438 216 216 216
21.500000000000 13.062500000000 5.486999511719 219 219 219
21.500000000000 13.062500000000 5.416992187500 219 219 219
21.500000000000 13.062500000000 5.347991943359 197 197 197
21.531250000000 13.000000000000 5.210998535156 248 248 248
21.500000000000 13.000000000000 5.141998291016 255 255 255
21.531250000000 13.000000000000 5.073974609375 255 255 255
21.531250000000 13.000000000000 5.005981445313 142 142 142
21.531250000000 13.000000000000 2.441986083984 119 119 119
21.531250000000 13.187500000000 5.627990722656 213 213 213
21.531250000000 13.187500000000 5.560974121094 216 216 216
21.531250000000 13.187500000000 5.487976074219 216 216 216
21.531250000000 13.187500000000 5.419982910156 178 178 178
21.531250000000 13.187500000000 5.140991210938 255 255 255
21.531250000000 13.187500000000 5.071990966797 250 250 250
21.531250000000 13.187500000000 5.004974365234 255 255 255
21.531250000000 13.187500000000 4.935974121094 194 194 194
21.531250000000 13.312500000000 5.702972412109 187 187 187
21.531250000000 13.312500000000 5.630981445313 210 210 210
21.531250000000 13.312500000000 5.560974121094 217 217 217
21.531250000000 13.312500000000 5.489990234375 161 161 161
21.531250000000 13.312500000000 5.072998046875 255 255 255
21.531250000000 13.312500000000 5.005981445313 255 255 255
21.531250000000 13.312500000000 4.935974121094 249 249 249
21.531250000000 13.312500000000 4.866973876953 14 14 14
21.468750000000 11.812500000000 2.476989746094 188 188 188
21.468750000000 12.250000000000 4.945983886719 180 180 180
21.468750000000 12.250000000000 5.023986816406 184 184 184
21.468750000000 12.250000000000 5.101989746094 163 163 163
21.437500000000 12.250000000000 5.570983886719 188 188 188
21.468750000000 12.250000000000 5.651977539063 158 158 158
21.437500000000 12.250000000000 5.726989746094 92 92 92
21.468750000000 12.375000000000 5.022979736328 161 161 161
21.437500000000 12.375000000000 5.098999023438 194 194 194
21.468750000000 12.375000000000 5.178985595703 165 165 165
21.468750000000 12.375000000000 5.489990234375 193 193 193
21.468750000000 12.375000000000 5.569976806641 157 157 157
21.437500000000 12.375000000000 5.647979736328 153 153 153
21.468750000000 12.500000000000 5.099975585938 191 191 191
21.468750000000 12.500000000000 5.177978515625 191 191 191
21.468750000000 12.500000000000 5.256988525391 154 154 154
21.468750000000 12.500000000000 5.412994384766 197 197 197
21.468750000000 12.500000000000 5.492980957031 154 154 154
21.468750000000 12.500000000000 5.572998046875 149 149 149
21.468750000000 12.625000000000 5.179992675781 189 189 189
21.468750000000 12.625000000000 5.258972167969 182 182 182
21.468750000000 12.625000000000 5.335998535156 145 145 145
21.468750000000 12.625000000000 5.415985107422 152 152 152
21.468750000000 12.625000000000 5.495971679688 146 146 146
21.375000000000 12.750000000000 2.441986083984 129 129 129
21.343750000000 12.750000000000 2.526977539063 122 122 122
21.343750000000 12.750000000000 2.610992431641 127 127 127
21.375000000000 12.750000000000 2.690979003906 118 118 118
21.375000000000 12.750000000000 2.772979736328 128 128 128
21.375000000000 12.750000000000 2.852996826172 127 127 127
21.375000000000 12.750000000000 2.934997558594 134 134 134
21.375000000000 12.750000000000 3.014984130859 124 124 124
21.375000000000 12.750000000000 3.095001220703 126 126 126
21.375000000000 12.750000000000 3.172973632813 134 134 134
21.406250000000 12.750000000000 3.250976562500 121 121 121
21.375000000000 12.750000000000 3.330993652344 124 124 124
21.375000000000 12.750000000000 3.408996582031 125 125 125
21.406250000000 12.750000000000 3.485992431641 121 121 121
21.375000000000 12.750000000000 3.564971923828 116 116 116
21.406250000000 12.750000000000 3.641998291016 120 120 120
21.406250000000 12.750000000000 3.717987060547 118 118 118
21.406250000000 12.750000000000 3.794982910156 115 115 115
21.406250000000 12.750000000000 3.871978759766 116 116 116
21.406250000000 12.750000000000 3.948974609375 117 117 117
21.406250000000 12.750000000000 4.026977539063 119 119 119
21.406250000000 12.750000000000 4.101989746094 115 115 115
21.406250000000 12.750000000000 4.177978515625 121 121 121
21.406250000000 12.750000000000 4.254974365234 115 115 115
