24.593750000000 8.500000000000 7.139984130859 209 209 209
24.593750000000 8.500000000000 7.032989501953 196 196 196
24.531250000000 8.625000000000 7.334991455078 70 70 70
24.593750000000 8.625000000000 7.246978759766 105 105 105
24.656250000000 8.562500000000 7.138977050781 203 203 203
24.687500000000 8.625000000000 7.030975341797 190 190 190
24.531250000000 8.687500000000 7.333984375000 71 71 71
24.656250000000 8.687500000000 7.244995117188 255 255 255
24.656250000000 8.687500000000 7.139984130859 155 155 155
24.687500000000 8.687500000000 7.028991699219 186 186 186
24.531250000000 8.875000000000 7.337982177734 46 46 46
24.593750000000 8.875000000000 7.245971679688 111 111 111
24.593750000000 8.875000000000 7.135986328125 144 144 144
24.656250000000 8.875000000000 7.034973144531 197 197 197
24.593750000000 9.062500000000 7.250976562500 80 80 80
24.625000000000 9.062500000000 7.141998291016 196 196 196
24.718750000000 9.000000000000 7.036987304688 204 204 204
24.500000000000 9.187500000000 7.339996337891 27 27 27
24.593750000000 9.125000000000 7.250000000000 115 115 115
24.687500000000 9.125000000000 7.144989013672 200 200 200
24.718750000000 9.125000000000 7.033996582031 198 198 198
24.593750000000 9.312500000000 7.345977783203 13 13 13
24.593750000000 9.312500000000 7.251983642578 128 128 128
24.656250000000 9.250000000000 7.143981933594 190 190 190
24.656250000000 9.312500000000 7.037994384766 196 196 196
24.593750000000 9.437500000000 7.346984863281 17 17 17
24.625000000000 9.437500000000 7.253997802734 113 113 113
24.656250000000 9.437500000000 7.145996093750 184 184 184
24.656250000000 9.437500000000 7.037994384766 204 204 204
24.531250000000 9.562500000000 7.335998535156 52 52 52
24.656250000000 9.562500000000 7.253997802734 126 126 126
24.656250000000 9.562500000000 7.143981933594 190 190 190
24.718750000000 9.500000000000 7.035980224609 192 192 192
24.593750000000 9.687500000000 7.339996337891 59 59 59
24.625000000000 9.750000000000 7.247985839844 131 131 131
24.656250000000 9.687500000000 7.143981933594 203 203 203
24.656250000000 9.687500000000 7.037994384766 191 191 191
24.593750000000 9.812500000000 7.340972900391 97 97 97
24.656250000000 9.812500000000 7.243988037109 206 206 206
24.656250000000 9.875000000000 7.141998291016 185 185 185
24.656250000000 9.875000000000 7.029998779297 175 175 175
24.531250000000 10.000000000000 7.333984375000 87 87 87
24.656250000000 9.937500000000 7.244995117188 145 145 145
24.656250000000 10.000000000000 7.138977050781 190 190 190
24.718750000000 9.937500000000 7.028991699219 175 175 175
24.593750000000 10.062500000000 7.332000732422 97 97 97
24.656250000000 10.125000000000 7.241973876953 198 198 198
24.656250000000 10.062500000000 7.136993408203 146 146 146
24.656250000000 10.062500000000 7.024993896484 152 152 152
24.593750000000 10.187500000000 7.328979492188 104 104 104
24.656250000000 10.250000000000 7.242980957031 161 161 161
24.656250000000 10.250000000000 7.138000488281 171 171 171
24.656250000000 10.250000000000 7.024993896484 156 156 156
24.531250000000 10.375000000000 7.450988769531 58 58 58
24.531250000000 10.375000000000 7.333984375000 108 108 108
24.656250000000 10.375000000000 7.242980957031 165 165 165
24.656250000000 10.375000000000 7.138977050781 180 180 180
24.656250000000 10.375000000000 7.026977539063 148 148 148
24.531250000000 10.562500000000 7.334991455078 88 88 88
24.656250000000 10.500000000000 7.245971679688 145 145 145
24.656250000000 10.500000000000 7.138000488281 212 212 212
24.718750000000 10.500000000000 7.032989501953 174 174 174
24.656250000000 10.625000000000 7.578979492188 32 32 32
24.625000000000 10.625000000000 7.338989257813 98 98 98
24.718750000000 10.687500000000 7.032989501953 110 110 110
24.562500000000 10.750000000000 7.338989257813 101 101 101
24.718750000000 10.750000000000 7.035980224609 104 104 104
24.593750000000 11.000000000000 7.699981689453 6 6 6
24.593750000000 11.000000000000 7.345977783203 85 85 85
24.718750000000 10.875000000000 7.041992187500 110 110 110
24.593750000000 11.000000000000 7.701995849609 25 25 25
24.593750000000 11.000000000000 7.340972900391 106 106 106
24.718750000000 11.062500000000 7.043975830078 117 117 117
24.593750000000 11.187500000000 7.340972900391 116 116 116
24.718750000000 11.187500000000 7.043975830078 113 113 113
24.593750000000 11.375000000000 7.814971923828 57 57 57
24.593750000000 11.375000000000 7.340972900391 123 123 123
24.750000000000 11.312500000000 7.045989990234 122 122 122
24.593750000000 11.437500000000 7.338989257813 137 137 137
24.750000000000 11.500000000000 7.042999267578 110 110 110
24.593750000000 11.562500000000 7.927001953125 68 68 68
24.593750000000 11.562500000000 7.335998535156 169 169 169
24.750000000000 11.562500000000 7.039001464844 82 82 82
24.593750000000 11.750000000000 7.334991455078 150 150 150
24.781250000000 11.750000000000 7.040985107422 107 107 107
24.593750000000 11.812500000000 8.050994873047 65 65 65
24.593750000000 11.812500000000 7.335998535156 160 160 160
24.781250000000 11.875000000000 7.047973632813 81 81 81
24.593750000000 12.000000000000 7.336975097656 150 150 150
24.718750000000 12.000000000000 7.252990722656 97 97 97
24.750000000000 12.000000000000 7.148986816406 105 105 105
24.781250000000 11.937500000000 7.044982910156 161 161 161
24.781250000000 12.000000000000 6.925994873047 38 38 38
24.593750000000 12.187500000000 8.177001953125 79 79 79
24.625000000000 12.187500000000 7.345001220703 168 168 168
24.593750000000 12.250000000000 7.343994140625 129 129 129
24.593750000000 12.375000000000 8.300994873047 75 75 75
24.625000000000 12.375000000000 7.350982666016 131 131 131
24.656250000000 12.437500000000 6.903991699219 93 93 93
24.656250000000 12.562500000000 7.350982666016 125 125 125
24.656250000000 12.562500000000 7.005981445313 58 58 58
24.656250000000 12.562500000000 6.901977539063 119 119 119
24.625000000000 12.687500000000 8.421997070313 45 45 45
24.656250000000 12.687500000000 7.351989746094 143 143 143
24.656250000000 12.687500000000 7.007995605469 86 86 86
24.593750000000 12.875000000000 8.532989501953 5 5 5
24.656250000000 12.875000000000 7.347991943359 139 139 139
24.625000000000 12.875000000000 7.226989746094 6 6 6
24.531250000000 12.937500000000 8.526977539063 89 89 89
24.531250000000 12.937500000000 8.283996582031 5 5 5
24.625000000000 12.937500000000 8.169982910156 10 10 10
24.656250000000 13.000000000000 8.050994873047 13 13 13
24.656250000000 13.000000000000 7.930999755859 17 17 17
24.656250000000 13.000000000000 7.813995361328 10 10 10
24.656250000000 13.000000000000 7.692993164063 7 7 7
24.656250000000 13.000000000000 7.342987060547 121 121 121
24.656250000000 13.000000000000 7.234985351563 7 7 7
24.656250000000 13.000000000000 7.118988037109 18 18 18
24.625000000000 12.937500000000 6.994995117188 46 46 46
24.656250000000 13.000000000000 6.902984619141 12 12 12
24.656250000000 13.000000000000 6.787994384766 11 11 11
24.656250000000 13.000000000000 6.677978515625 24 24 24
24.656250000000 13.000000000000 6.564971923828 23 23 23
24.656250000000 13.000000000000 6.458984375000 29 29 29
24.656250000000 13.000000000000 6.348999023438 34 34 34
24.687500000000 13.000000000000 5.808990478516 35 35 35
24.781250000000 12.937500000000 5.280975341797 13 13 13
24.843750000000 12.937500000000 4.122985839844 116 116 116
24.843750000000 12.937500000000 4.016998291016 141 141 141
24.843750000000 12.937500000000 3.909973144531 135 135 135
24.843750000000 12.937500000000 3.803985595703 139 139 139
24.843750000000 12.937500000000 3.698974609375 47 47 47
24.781250000000 12.937500000000 5.388000488281 16 16 16
24.531250000000 13.125000000000 8.883972167969 141 141 141
24.531250000000 13.125000000000 8.756988525391 145 145 145
24.531250000000 13.125000000000 8.630981445313 160 160 160
24.531250000000 13.125000000000 8.507995605469 163 163 163
24.531250000000 13.125000000000 8.379974365234 162 162 162
24.531250000000 13.125000000000 8.257995605469 160 160 160
24.531250000000 13.125000000000 8.140991210938 163 163 163
24.531250000000 13.125000000000 8.020996093750 169 169 169
24.531250000000 13.125000000000 7.899993896484 169 169 169
24.531250000000 13.125000000000 7.785980224609 170 170 170
24.593750000000 13.062500000000 7.668975830078 172 172 172
24.593750000000 13.062500000000 7.555999755859 173 173 173
24.593750000000 13.062500000000 7.438995361328 176 176 176
24.593750000000 13.062500000000 7.323974609375 173 173 173
24.593750000000 13.062500000000 7.210998535156 174 174 174
24.625000000000 13.062500000000 7.100982666016 182 182 182
24.625000000000 13.062500000000 6.989990234375 181 181 181
24.625000000000 13.062500000000 6.877990722656 185 185 185
24.656250000000 13.062500000000 6.768981933594 181 181 181
24.656250000000 13.062500000000 6.658996582031 184 184 184
24.656250000000 13.062500000000 6.548980712891 185 185 185
24.656250000000 13.062500000000 6.438995361328 188 188 188
24.656250000000 13.062500000000 5.902984619141 197 197 197
24.656250000000 13.062500000000 5.795989990234 198 198 198
24.656250000000 13.062500000000 5.690979003906 199 199 199
24.656250000000 13.125000000000 5.165985107422 203 203 203
24.656250000000 13.125000000000 5.061981201172 209 209 209
24.656250000000 13.125000000000 4.957000732422 212 212 212
24.656250000000 13.125000000000 4.851989746094 207 207 207
24.656250000000 13.125000000000 4.747985839844 208 208 208
24.656250000000 13.125000000000 4.643981933594 210 210 210
24.656250000000 13.125000000000 4.539978027344 210 210 210
24.656250000000 13.062500000000 4.435974121094 211 211 211
24.656250000000 13.062500000000 4.332000732422 211 211 211
24.687500000000 13.062500000000 4.227996826172 210 210 210
24.687500000000 13.062500000000 4.122985839844 210 210 210
24.687500000000 13.062500000000 4.018981933594 206 206 206
24.687500000000 13.062500000000 3.914001464844 204 204 204
24.687500000000 13.062500000000 3.808990478516 205 205 205
24.718750000000 13.062500000000 3.703979492188 203 203 203
24.718750000000 13.062500000000 3.598999023438 204 204 204
24.718750000000 13.062500000000 3.492980957031 199 199 199
24.718750000000 13.062500000000 3.386993408203 200 200 200
24.718750000000 13.062500000000 3.280975341797 204 204 204
24.718750000000 13.062500000000 3.174987792969 201 201 201
24.718750000000 13.062500000000 3.067993164063 196 196 196
24.718750000000 13.062500000000 2.959991455078 195 195 195
24.718750000000 13.062500000000 2.851989746094 191 191 191
24.718750000000 13.062500000000 2.741973876953 193 193 193
24.718750000000 13.062500000000 2.632995605469 188 188 188
24.718750000000 13.062500000000 2.524993896484 193 193 193
24.718750000000 13.062500000000 2.414001464844 188 188 188
24.656250000000 13.062500000000 6.016998291016 140 140 140
24.687500000000 13.062500000000 5.273986816406 173 173 173
24.843750000000 13.250000000000 3.159973144531 6 6 6
24.843750000000 13.250000000000 3.052001953125 17 17 17
24.843750000000 13.250000000000 2.944000244141 18 18 18
24.843750000000 13.250000000000 2.837982177734 41 41 41
24.843750000000 13.250000000000 2.727996826172 61 61 61
24.843750000000 13.250000000000 2.615997314453 75 75 75
24.843750000000 13.250000000000 2.505981445313 93 93 93
24.843750000000 13.250000000000 2.395996093750 88 88 88
24.531250000000 5.375000000000 2.486999511719 219 219 219
24.562500000000 5.375000000000 2.608001708984 254 254 254
24.531250000000 5.312500000000 2.743988037109 165 165 165
24.531250000000 5.312500000000 2.867980957031 161 161 161
24.531250000000 5.312500000000 2.990997314453 170 170 170
24.531250000000 5.375000000000 3.112976074219 173 173 173
24.531250000000 5.375000000000 3.358001708984 174 174 174
24.531250000000 5.375000000000 3.479980468750 180 180 180
24.531250000000 5.375000000000 3.601989746094 169 169 169
24.531250000000 5.375000000000 3.722991943359 179 179 179
24.531250000000 5.375000000000 3.843994140625 170 170 170
24.531250000000 5.375000000000 3.965972900391 137 137 137
24.531250000000 5.375000000000 4.085998535156 151 151 151
24.531250000000 5.375000000000 4.207000732422 140 140 140
24.531250000000 5.375000000000 4.327972412109 31 31 31
24.531250000000 5.375000000000 4.448974609375 71 71 71
24.531250000000 5.375000000000 4.569000244141 34 34 34
24.531250000000 5.375000000000 5.414978027344 31 31 31
24.437500000000 5.375000000000 2.517974853516 206 206 206
24.437500000000 5.375000000000 2.639984130859 196 196 196
24.437500000000 5.375000000000 2.761993408203 201 201 201
24.437500000000 5.375000000000 2.884979248047 182 182 182
24.437500000000 5.375000000000 3.007995605469 208 208 208
24.437500000000 5.375000000000 3.129974365234 203 203 203
24.437500000000 5.375000000000 3.251983642578 208 208 208
24.437500000000 5.375000000000 3.372985839844 210 210 210
24.437500000000 5.375000000000 3.493988037109 208 208 208
24.437500000000 5.375000000000 3.614990234375 215 215 215
24.406250000000 5.375000000000 3.735992431641 216 216 216
24.437500000000 5.375000000000 3.853973388672 212 212 212
24.406250000000 5.375000000000 3.973999023438 222 222 222
24.406250000000 5.375000000000 4.093994140625 221 221 221
24.406250000000 5.375000000000 4.212982177734 222 222 222
24.406250000000 5.375000000000 4.332000732422 220 220 220
24.437500000000 5.375000000000 4.449981689453 215 215 215
24.437500000000 5.375000000000 4.569000244141 216 216 216
24.437500000000 5.375000000000 4.687988281250 220 220 220
24.406250000000 5.375000000000 4.806976318359 216 216 216
24.406250000000 5.375000000000 4.925994873047 216 216 216
24.437500000000 5.375000000000 5.045989990234 216 216 216
24.437500000000 5.375000000000 5.164978027344 211 211 211
24.406250000000 5.375000000000 5.283996582031 216 216 216
24.437500000000 5.375000000000 5.404998779297 189 189 189
24.437500000000 5.375000000000 5.523986816406 208 208 208
24.437500000000 5.375000000000 5.643981933594 205 205 205
24.437500000000 5.375000000000 5.764984130859 210 210 210
24.437500000000 5.375000000000 5.885986328125 207 207 207
24.437500000000 5.375000000000 6.006988525391 204 204 204
24.437500000000 5.375000000000 6.127990722656 191 191 191
24.437500000000 5.375000000000 6.250976562500 208 208 208
24.437500000000 5.375000000000 6.371978759766 178 178 178
24.437500000000 5.375000000000 6.496978759766 194 194 194
24.437500000000 5.375000000000 6.618988037109 187 187 187
24.437500000000 5.375000000000 6.742980957031 196 196 196
24.375000000000 5.437500000000 6.867980957031 186 186 186
24.375000000000 5.437500000000 6.992980957031 178 178 178
24.343750000000 5.437500000000 7.115997314453 185 185 185
24.375000000000 5.437500000000 7.245971679688 187 187 187
24.375000000000 5.437500000000 7.372985839844 182 182 182
24.343750000000 5.437500000000 7.498992919922 161 161 161
24.343750000000 5.437500000000 7.626983642578 190 190 190
24.343750000000 5.437500000000 7.756988525391 175 175 175
24.343750000000 5.437500000000 7.885986328125 172 172 172
24.343750000000 5.437500000000 8.013977050781 149 149 149
24.343750000000 5.437500000000 8.151000976563 163 163 163
24.343750000000 5.437500000000 8.282989501953 149 149 149
24.343750000000 5.437500000000 8.417999267578 146 146 146
24.343750000000 5.437500000000 8.553985595703 141 141 141
24.343750000000 5.437500000000 8.692993164063 151 151 151
24.343750000000 5.437500000000 8.828979492188 158 158 158
24.343750000000 5.437500000000 8.967987060547 137 137 137
24.343750000000 5.562500000000 2.521972656250 90 90 90
24.375000000000 5.562500000000 2.639984130859 55 55 55
24.375000000000 5.562500000000 2.764984130859 42 42 42
24.375000000000 5.562500000000 2.885986328125 59 59 59
24.375000000000 5.562500000000 3.006988525391 45 45 45
24.375000000000 5.562500000000 3.130981445313 49 49 49
24.375000000000 5.562500000000 3.250000000000 70 70 70
24.375000000000 5.562500000000 3.371978759766 81 81 81
24.375000000000 5.562500000000 3.492980957031 104 104 104
24.375000000000 5.562500000000 3.613983154297 107 107 107
24.375000000000 5.562500000000 3.733001708984 133 133 133
24.343750000000 5.562500000000 3.853973388672 109 109 109
24.375000000000 5.562500000000 3.972991943359 165 165 165
24.406250000000 5.562500000000 4.090972900391 135 135 135
24.343750000000 5.562500000000 4.211975097656 128 128 128
24.343750000000 5.562500000000 4.330993652344 154 154 154
24.343750000000 5.562500000000 4.449981689453 161 161 161
24.375000000000 5.562500000000 4.569000244141 160 160 160
24.343750000000 5.562500000000 4.686981201172 163 163 163
24.343750000000 5.562500000000 4.805999755859 150 150 150
24.343750000000 5.562500000000 4.924987792969 164 164 164
24.343750000000 5.562500000000 5.043975830078 155 155 155
24.343750000000 5.562500000000 5.162994384766 160 160 160
24.343750000000 5.500000000000 5.281982421875 154 154 154
24.343750000000 5.500000000000 5.399993896484 130 130 130
24.343750000000 5.500000000000 5.519989013672 132 132 132
24.343750000000 5.562500000000 5.640991210938 127 127 127
24.343750000000 5.562500000000 5.760986328125 138 138 138
24.343750000000 5.500000000000 5.880981445313 133 133 133
24.343750000000 5.562500000000 6.002990722656 139 139 139
24.343750000000 5.562500000000 6.123992919922 132 132 132
24.343750000000 5.562500000000 6.246978759766 127 127 127
24.343750000000 5.562500000000 6.366973876953 112 112 112
24.343750000000 5.562500000000 6.489990234375 120 120 120
24.343750000000 5.562500000000 6.611999511719 89 89 89
24.343750000000 5.562500000000 6.737976074219 97 97 97
24.343750000000 5.500000000000 6.858001708984 55 55 55
24.343750000000 5.562500000000 6.984985351563 18 18 18
24.312500000000 5.500000000000 7.354980468750 81 81 81
24.343750000000 5.562500000000 7.492980957031 25 25 25
24.343750000000 5.500000000000 7.617980957031 16 16 16
24.343750000000 5.562500000000 7.751983642578 3 3 3
24.312500000000 5.500000000000 7.867980957031 3 3 3
24.343750000000 5.500000000000 8.004974365234 30 30 30
24.312500000000 5.500000000000 8.668975830078 50 50 50
24.468750000000 5.812500000000 7.269989013672 58 58 58
24.406250000000 5.750000000000 8.569976806641 10 10 10
24.468750000000 6.000000000000 7.139984130859 73 73 73
24.562500000000 6.250000000000 7.017974853516 86 86 86
24.406250000000 6.250000000000 8.289001464844 14 14 14
24.468750000000 6.375000000000 7.256988525391 40 40 40
24.437500000000 6.375000000000 7.375000000000 53 53 53
24.562500000000 6.625000000000 6.906982421875 29 29 29
24.468750000000 6.562500000000 8.172973632813 25 25 25
24.531250000000 6.750000000000 6.902984619141 138 138 138
24.531250000000 6.875000000000 6.778991699219 129 129 129
24.562500000000 6.875000000000 6.909973144531 115 115 115
24.468750000000 6.812500000000 8.052001953125 38 38 38
24.562500000000 7.062500000000 7.037994384766 112 112 112
24.562500000000 7.062500000000 7.160980224609 73 73 73
24.531250000000 7.000000000000 7.278991699219 69 69 69
24.562500000000 7.125000000000 7.036987304688 79 79 79
24.468750000000 7.062500000000 7.915985107422 20 20 20
24.593750000000 7.250000000000 7.040985107422 90 90 90
24.593750000000 7.437500000000 7.034973144531 87 87 87
24.593750000000 7.562500000000 7.033996582031 91 91 91
24.593750000000 7.687500000000 7.036987304688 90 90 90
24.593750000000 7.875000000000 7.036987304688 83 83 83
24.625000000000 8.000000000000 7.039978027344 85 85 85
24.625000000000 8.125000000000 7.039978027344 82 82 82
24.625000000000 8.250000000000 7.040985107422 78 78 78
24.562500000000 8.250000000000 7.407989501953 9 9 9
24.656250000000 8.375000000000 7.044982910156 107 107 107
24.593750000000 8.375000000000 7.168975830078 76 76 76
24.531250000000 8.312500000000 7.269989013672 58 58 58
24.500000000000 8.250000000000 7.388977050781 1 1 1
24.656250000000 8.562500000000 7.052001953125 172 172 172
24.625000000000 8.562500000000 7.171997070313 178 178 178
24.593750000000 8.500000000000 7.286987304688 28 28 28
24.656250000000 8.687500000000 7.053985595703 182 182 182
24.656250000000 8.687500000000 7.172973632813 164 164 164
24.593750000000 8.625000000000 7.289001464844 29 29 29
24.656250000000 8.812500000000 7.053985595703 178 178 178
24.625000000000 8.750000000000 7.169982910156 165 165 165
24.593750000000 8.750000000000 7.287994384766 53 53 53
24.656250000000 9.000000000000 7.047973632813 169 169 169
24.656250000000 8.937500000000 7.165985107422 168 168 168
24.593750000000 8.937500000000 7.284973144531 53 53 53
24.656250000000 9.062500000000 7.042999267578 148 148 148
24.656250000000 9.062500000000 7.166992187500 188 188 188
24.593750000000 9.000000000000 7.279998779297 61 61 61
24.656250000000 9.187500000000 7.036987304688 127 127 127
24.656250000000 9.187500000000 7.158996582031 178 178 178
24.593750000000 9.125000000000 7.278991699219 91 91 91
24.656250000000 9.375000000000 7.040985107422 109 109 109
24.656250000000 9.312500000000 7.156982421875 156 156 156
24.625000000000 9.312500000000 7.279998779297 112 112 112
24.656250000000 9.500000000000 7.039978027344 131 131 131
24.656250000000 9.437500000000 7.158996582031 115 115 115
24.593750000000 9.437500000000 7.277984619141 91 91 91
24.687500000000 9.625000000000 7.040985107422 130 130 130
24.656250000000 9.562500000000 7.165985107422 193 193 193
24.625000000000 9.562500000000 7.282989501953 87 87 87
24.687500000000 9.750000000000 7.044982910156 136 136 136
24.656250000000 9.750000000000 7.168975830078 167 167 167
24.656250000000 9.750000000000 7.285980224609 85 85 85
24.718750000000 9.875000000000 7.048980712891 159 159 159
24.656250000000 9.875000000000 7.167999267578 146 146 146
24.656250000000 9.812500000000 7.289001464844 59 59 59
24.718750000000 10.000000000000 7.048980712891 126 126 126
24.656250000000 10.000000000000 7.171997070313 186 186 186
24.593750000000 10.000000000000 7.289001464844 73 73 73
24.718750000000 10.187500000000 7.048980712891 117 117 117
24.656250000000 10.125000000000 7.170989990234 144 144 144
24.656250000000 10.125000000000 7.291992187500 79 79 79
24.718750000000 10.312500000000 7.048980712891 120 120 120
24.656250000000 10.250000000000 7.164978027344 97 97 97
24.656250000000 10.250000000000 7.289001464844 81 81 81
24.593750000000 10.187500000000 7.399993896484 33 33 33
24.656250000000 10.437500000000 7.047973632813 102 102 102
24.625000000000 10.437500000000 7.167999267578 149 149 149
24.593750000000 10.437500000000 7.289001464844 86 86 86
24.718750000000 10.562500000000 7.039978027344 79 79 79
24.687500000000 10.562500000000 7.162994384766 184 184 184
24.656250000000 10.562500000000 7.285980224609 114 114 114
24.562500000000 10.562500000000 7.527984619141 44 44 44
24.718750000000 10.687500000000 7.040985107422 57 57 57
24.656250000000 10.875000000000 7.039001464844 67 67 67
24.531250000000 10.750000000000 7.383972167969 6 6 6
24.593750000000 10.812500000000 7.654998779297 39 39 39
24.718750000000 11.000000000000 7.041992187500 72 72 72
24.687500000000 11.125000000000 7.044982910156 64 64 64
24.531250000000 11.000000000000 7.383972167969 5 5 5
24.718750000000 11.250000000000 7.049987792969 68 68 68
24.562500000000 11.187500000000 7.782989501953 27 27 27
24.781250000000 11.375000000000 7.056976318359 58 58 58
24.718750000000 11.500000000000 7.062988281250 66 66 66
24.593750000000 11.500000000000 7.922973632813 66 66 66
24.718750000000 11.687500000000 7.061981201172 57 57 57
24.750000000000 11.875000000000 6.935974121094 33 33 33
24.750000000000 11.875000000000 7.061981201172 68 68 68
24.593750000000 11.750000000000 7.392974853516 37 37 37
24.593750000000 11.750000000000 8.060974121094 46 46 46
24.750000000000 11.937500000000 7.058990478516 140 140 140
24.593750000000 11.875000000000 7.393981933594 30 30 30
24.718750000000 12.062500000000 6.914978027344 125 125 125
24.656250000000 12.062500000000 7.289978027344 42 42 42
24.593750000000 12.000000000000 7.390991210938 59 59 59
24.656250000000 12.000000000000 8.197998046875 6 6 6
24.593750000000 12.125000000000 7.389984130859 63 63 63
24.656250000000 12.312500000000 6.896972656250 86 86 86
24.593750000000 12.250000000000 7.384979248047 76 76 76
24.656250000000 12.437500000000 6.888977050781 118 118 118
24.593750000000 12.375000000000 7.383972167969 62 62 62
24.593750000000 12.375000000000 8.304992675781 17 17 17
24.656250000000 12.562500000000 6.888000488281 133 133 133
24.656250000000 12.562500000000 7.010986328125 72 72 72
24.593750000000 12.562500000000 7.388000488281 67 67 67
24.656250000000 12.687500000000 7.013000488281 72 72 72
24.625000000000 12.687500000000 7.393981933594 57 57 57
24.593750000000 12.687500000000 8.449981689453 36 36 36
24.781250000000 12.937500000000 3.830993652344 24 24 24
24.781250000000 12.875000000000 3.953979492188 36 36 36
24.781250000000 12.875000000000 4.076995849609 48 48 48
24.625000000000 12.875000000000 7.391998291016 49 49 49
24.781250000000 13.062500000000 2.464996337891 208 208 208
24.781250000000 13.062500000000 2.590972900391 203 203 203
24.781250000000 13.062500000000 2.718994140625 199 199 199
24.781250000000 13.062500000000 2.843994140625 197 197 197
24.781250000000 13.062500000000 2.970977783203 196 196 196
24.781250000000 13.062500000000 3.096984863281 190 190 190
24.781250000000 13.062500000000 3.220977783203 188 188 188
24.781250000000 13.062500000000 3.345001220703 176 176 176
24.781250000000 13.062500000000 3.467987060547 186 186 186
24.781250000000 13.062500000000 3.591979980469 188 188 188
24.750000000000 13.062500000000 3.714996337891 195 195 195
24.750000000000 13.062500000000 3.837982177734 198 198 198
24.750000000000 13.062500000000 3.959991455078 204 204 204
24.750000000000 13.062500000000 4.082000732422 206 206 206
24.718750000000 13.062500000000 4.204986572266 210 210 210
24.718750000000 13.062500000000 4.325988769531 215 215 215
24.718750000000 13.000000000000 4.447998046875 210 210 210
24.718750000000 13.062500000000 4.569000244141 211 211 211
24.718750000000 13.000000000000 4.690979003906 212 212 212
24.718750000000 13.000000000000 4.811981201172 215 215 215
24.718750000000 13.000000000000 4.932983398438 215 215 215
24.718750000000 13.000000000000 5.054992675781 215 215 215
24.718750000000 13.000000000000 5.175994873047 205 205 205
24.718750000000 13.000000000000 5.296997070313 211 211 211
24.718750000000 13.000000000000 5.418975830078 204 204 204
24.718750000000 13.000000000000 5.540985107422 201 201 201
24.718750000000 13.000000000000 5.662994384766 201 201 201
24.718750000000 13.000000000000 5.785980224609 194 194 194
24.687500000000 13.000000000000 5.905975341797 190 190 190
24.718750000000 13.000000000000 6.029998779297 193 193 193
24.687500000000 13.000000000000 6.152984619141 193 193 193
24.687500000000 13.000000000000 6.276977539063 179 179 179
24.687500000000 13.000000000000 6.399993896484 178 178 178
24.687500000000 13.000000000000 6.523986816406 163 163 163
24.656250000000 13.000000000000 6.645996093750 163 163 163
24.656250000000 13.000000000000 6.772979736328 153 153 153
24.656250000000 13.000000000000 6.896972656250 155 155 155
24.656250000000 13.000000000000 7.019989013672 147 147 147
24.656250000000 13.000000000000 7.144989013672 137 137 137
24.656250000000 13.000000000000 7.276000976563 142 142 142
24.625000000000 12.937500000000 7.392974853516 108 108 108
24.656250000000 13.000000000000 7.531982421875 126 126 126
24.656250000000 13.000000000000 7.661987304688 124 124 124
24.656250000000 13.000000000000 7.794982910156 128 128 128
24.625000000000 12.937500000000 7.916992187500 115 115 115
24.656250000000 13.000000000000 8.052978515625 113 113 113
24.656250000000 13.000000000000 8.186981201172 108 108 108
24.656250000000 13.000000000000 8.323974609375 109 109 109
24.656250000000 13.000000000000 8.461975097656 87 87 87
24.593750000000 12.937500000000 8.584991455078 71 71 71
24.625000000000 12.937500000000 8.733978271484 37 37 37
24.656250000000 13.000000000000 8.880981445313 20 20 20
24.750000000000 13.125000000000 2.473999023438 179 179 179
24.718750000000 13.125000000000 2.603973388672 177 177 177
24.750000000000 13.187500000000 2.727996826172 177 177 177
24.718750000000 13.125000000000 2.854980468750 176 176 176
24.718750000000 13.125000000000 2.979980468750 181 181 181
24.718750000000 13.125000000000 3.106994628906 183 183 183
24.718750000000 13.125000000000 3.228973388672 184 184 184
24.718750000000 13.125000000000 3.352996826172 189 189 189
24.718750000000 13.125000000000 3.475982666016 181 181 181
24.718750000000 13.125000000000 3.599975585938 189 189 189
24.718750000000 13.125000000000 3.720977783203 201 201 201
24.718750000000 13.125000000000 3.843994140625 199 199 199
24.718750000000 13.125000000000 3.964996337891 197 197 197
24.718750000000 13.125000000000 4.086975097656 203 203 203
24.687500000000 13.125000000000 4.207977294922 203 203 203
24.687500000000 13.125000000000 4.328979492188 205 205 205
24.687500000000 13.125000000000 4.449981689453 207 207 207
24.687500000000 13.125000000000 4.570983886719 208 208 208
24.687500000000 13.125000000000 4.690979003906 205 205 205
24.656250000000 13.125000000000 4.811981201172 206 206 206
24.656250000000 13.125000000000 4.931976318359 211 211 211
24.656250000000 13.125000000000 5.052978515625 212 212 212
24.656250000000 13.125000000000 5.172973632813 209 209 209
24.656250000000 13.125000000000 5.292999267578 213 213 213
24.656250000000 13.062500000000 5.414001464844 216 216 216
24.656250000000 13.062500000000 5.533996582031 212 212 212
24.656250000000 13.062500000000 5.655975341797 217 217 217
24.656250000000 13.062500000000 5.776000976563 217 217 217
24.656250000000 13.062500000000 5.897979736328 215 215 215
24.656250000000 13.062500000000 6.019989013672 212 212 212
24.625000000000 13.062500000000 6.140991210938 211 211 211
24.625000000000 13.062500000000 6.263977050781 212 212 212
24.625000000000 13.062500000000 6.386993408203 211 211 211
24.625000000000 13.062500000000 6.509979248047 214 214 214
24.625000000000 13.062500000000 6.632995605469 210 210 210
24.625000000000 13.062500000000 6.756988525391 203 203 203
24.593750000000 13.062500000000 6.880981445313 206 206 206
24.593750000000 13.062500000000 7.007995605469 207 207 207
24.593750000000 13.062500000000 7.131988525391 198 198 198
24.593750000000 13.062500000000 7.256988525391 194 194 194
24.593750000000 13.062500000000 7.381988525391 163 163 163
24.593750000000 13.062500000000 7.511993408203 194 194 194
24.593750000000 13.062500000000 7.639984130859 181 181 181
24.593750000000 13.062500000000 7.767974853516 189 189 189
24.593750000000 13.000000000000 7.894989013672 182 182 182
24.593750000000 13.000000000000 8.028991699219 173 173 173
24.593750000000 13.000000000000 8.157989501953 176 176 176
24.562500000000 13.000000000000 8.290985107422 174 174 174
24.562500000000 13.000000000000 8.424987792969 168 168 168
24.562500000000 13.000000000000 8.557983398438 158 158 158
24.531250000000 13.000000000000 8.692993164063 160 160 160
24.531250000000 13.000000000000 8.832000732422 158 158 158
24.406250000000 5.375000000000 8.991973876953 19 19 19
24.406250000000 5.375000000000 8.858978271484 73 73 73
24.406250000000 5.375000000000 8.724975585938 39 39 39
24.406250000000 5.375000000000 8.584991455078 17 17 17
24.406250000000 5.375000000000 8.444000244141 39 39 39
24.406250000000 5.375000000000 8.308990478516 53 53 53
24.406250000000 5.375000000000 8.171997070313 64 64 64
24.406250000000 5.375000000000 8.039978027344 83 83 83
24.406250000000 5.375000000000 7.906982421875 77 77 77
24.406250000000 5.375000000000 7.776000976563 82 82 82
24.406250000000 5.375000000000 7.651977539063 97 97 97
24.406250000000 5.375000000000 7.518981933594 87 87 87
24.406250000000 5.375000000000 7.388000488281 113 113 113
24.406250000000 5.375000000000 7.261993408203 100 100 100
24.406250000000 5.375000000000 7.135986328125 105 105 105
24.406250000000 5.375000000000 7.011993408203 103 103 103
24.406250000000 5.375000000000 6.883972167969 95 95 95
24.406250000000 5.375000000000 6.763000488281 102 102 102
24.406250000000 5.375000000000 6.638977050781 114 114 114
24.406250000000 5.375000000000 6.514984130859 110 110 110
24.406250000000 5.375000000000 6.392974853516 107 107 107
24.406250000000 5.375000000000 6.271972656250 112 112 112
24.406250000000 5.375000000000 6.146972656250 112 112 112
24.406250000000 5.375000000000 6.028991699219 133 133 133
24.406250000000 5.375000000000 5.906982421875 118 118 118
24.406250000000 5.375000000000 5.785980224609 132 132 132
24.406250000000 5.375000000000 5.667999267578 138 138 138
24.406250000000 5.375000000000 5.546997070313 134 134 134
24.406250000000 5.375000000000 5.427001953125 139 139 139
24.406250000000 5.375000000000 5.307983398438 154 154 154
24.406250000000 5.375000000000 5.188995361328 151 151 151
24.406250000000 5.375000000000 5.069000244141 161 161 161
24.406250000000 5.375000000000 4.949981689453 161 161 161
24.406250000000 5.375000000000 4.832000732422 164 164 164
24.406250000000 5.375000000000 4.712982177734 174 174 174
24.406250000000 5.375000000000 4.595001220703 175 175 175
24.406250000000 5.375000000000 4.475982666016 138 138 138
24.406250000000 5.375000000000 4.356994628906 189 189 189
24.406250000000 5.375000000000 4.238983154297 192 192 192
24.406250000000 5.375000000000 4.119995117188 192 192 192
24.406250000000 5.375000000000 4.000976562500 194 194 194
24.406250000000 5.375000000000 3.881988525391 195 195 195
24.406250000000 5.375000000000 3.763000488281 199 199 199
24.437500000000 5.375000000000 3.642974853516 185 185 185
24.437500000000 5.375000000000 3.522979736328 193 193 193
24.437500000000 5.375000000000 3.402984619141 196 196 196
24.437500000000 5.375000000000 3.281982421875 182 182 182
24.437500000000 5.375000000000 3.160980224609 190 190 190
24.437500000000 5.375000000000 3.039001464844 193 193 193
24.437500000000 5.375000000000 2.916992187500 177 177 177
24.437500000000 5.375000000000 2.796997070313 189 189 189
24.437500000000 5.375000000000 2.671997070313 187 187 187
24.437500000000 5.375000000000 2.549987792969 170 170 170
24.437500000000 5.375000000000 2.425994873047 170 170 170
24.406250000000 5.500000000000 9.005981445313 112 112 112
24.343750000000 5.500000000000 8.860992431641 125 125 125
24.406250000000 5.500000000000 8.725982666016 157 157 157
24.343750000000 5.500000000000 8.585998535156 144 144 144
24.343750000000 5.500000000000 8.446990966797 137 137 137
24.406250000000 5.500000000000 8.316986083984 146 146 146
24.343750000000 5.500000000000 8.179992675781 148 148 148
24.343750000000 5.500000000000 8.041992187500 136 136 136
24.343750000000 5.500000000000 7.912994384766 179 179 179
24.343750000000 5.500000000000 7.781982421875 151 151 151
24.343750000000 5.500000000000 7.651977539063 151 151 151
24.343750000000 5.562500000000 7.523986816406 165 165 165
24.343750000000 5.562500000000 7.394989013672 172 172 172
24.343750000000 5.562500000000 7.266998291016 159 159 159
24.343750000000 5.562500000000 7.141998291016 173 173 173
24.343750000000 5.562500000000 7.015991210938 170 170 170
24.343750000000 5.562500000000 6.888977050781 174 174 174
24.343750000000 5.562500000000 6.764984130859 181 181 181
24.343750000000 5.562500000000 6.641998291016 166 166 166
24.343750000000 5.562500000000 6.517974853516 191 191 191
24.343750000000 5.562500000000 6.395996093750 186 186 186
24.406250000000 5.500000000000 6.273986816406 198 198 198
24.343750000000 5.562500000000 6.151000976563 191 191 191
24.343750000000 5.562500000000 6.029998779297 199 199 199
24.343750000000 5.562500000000 5.907989501953 198 198 198
24.437500000000 5.500000000000 5.787994384766 197 197 197
24.437500000000 5.500000000000 5.667999267578 183 183 183
24.375000000000 5.562500000000 5.546997070313 209 209 209
24.375000000000 5.562500000000 5.427001953125 175 175 175
24.343750000000 5.562500000000 5.305999755859 212 212 212
24.375000000000 5.562500000000 5.187988281250 190 190 190
24.343750000000 5.562500000000 5.067993164063 215 215 215
24.375000000000 5.562500000000 4.948974609375 212 212 212
24.375000000000 5.562500000000 4.830993652344 210 210 210
24.375000000000 5.562500000000 4.711975097656 221 221 221
24.375000000000 5.562500000000 4.592987060547 213 213 213
24.375000000000 5.562500000000 4.473999023438 212 212 212
24.375000000000 5.562500000000 4.354980468750 182 182 182
24.375000000000 5.562500000000 4.235992431641 207 207 207
24.437500000000 5.500000000000 4.115997314453 202 202 202
24.375000000000 5.562500000000 3.996978759766 215 215 215
24.375000000000 5.562500000000 3.877990722656 190 190 190
24.437500000000 5.500000000000 3.756988525391 198 198 198
24.375000000000 5.562500000000 3.638977050781 198 198 198
24.437500000000 5.500000000000 3.515991210938 194 194 194
24.437500000000 5.500000000000 3.395996093750 192 192 192
24.437500000000 5.500000000000 3.274993896484 183 183 183
24.437500000000 5.500000000000 3.153991699219 187 187 187
24.437500000000 5.500000000000 3.031982421875 192 192 192
24.437500000000 5.500000000000 2.908996582031 198 198 198
24.468750000000 5.500000000000 2.784973144531 182 182 182
24.437500000000 5.500000000000 2.664978027344 176 176 176
24.437500000000 5.500000000000 2.539978027344 195 195 195
24.468750000000 5.500000000000 2.415985107422 146 146 146
24.437500000000 5.625000000000 8.609985351563 56 56 56
24.437500000000 5.625000000000 7.291992187500 86 86 86
24.531250000000 5.562500000000 6.056976318359 41 41 41
24.531250000000 5.562500000000 5.928985595703 8 8 8
24.468750000000 5.625000000000 4.473999023438 115 115 115
24.531250000000 5.562500000000 3.991973876953 6 6 6
24.625000000000 5.500000000000 3.250976562500 23 23 23
24.437500000000 5.750000000000 7.287994384766 87 87 87
24.562500000000 5.687500000000 3.257995605469 31 31 31
24.437500000000 5.875000000000 8.467987060547 17 17 17
24.437500000000 5.875000000000 7.286987304688 93 93 93
24.531250000000 5.875000000000 7.177001953125 50 50 50
24.468750000000 6.062500000000 7.292999267578 102 102 102
24.468750000000 6.187500000000 8.341979980469 22 22 22
24.468750000000 6.187500000000 7.295989990234 104 104 104
24.562500000000 6.125000000000 7.059997558594 125 125 125
24.468750000000 6.312500000000 7.293975830078 94 94 94
24.468750000000 6.500000000000 8.211975097656 10 10 10
24.468750000000 6.500000000000 7.292999267578 96 96 96
24.468750000000 6.562500000000 7.292999267578 97 97 97
24.562500000000 6.562500000000 6.935974121094 109 109 109
24.593750000000 6.562500000000 6.813995361328 39 39 39
24.468750000000 6.687500000000 7.289978027344 84 84 84
24.593750000000 6.687500000000 6.936981201172 83 83 83
24.468750000000 6.875000000000 8.069000244141 9 9 9
24.468750000000 6.875000000000 7.285980224609 78 78 78
24.593750000000 6.750000000000 6.934997558594 84 84 84
24.593750000000 6.750000000000 6.802978515625 137 137 137
24.468750000000 7.000000000000 7.282989501953 88 88 88
24.593750000000 6.875000000000 6.933990478516 128 128 128
24.500000000000 7.125000000000 7.940979003906 11 11 11
24.500000000000 7.125000000000 7.285980224609 91 91 91
24.593750000000 7.062500000000 7.063995361328 11 11 11
24.500000000000 7.250000000000 7.289001464844 99 99 99
24.500000000000 7.375000000000 7.810974121094 8 8 8
24.500000000000 7.375000000000 7.290985107422 98 98 98
24.500000000000 7.500000000000 7.290985107422 112 112 112
24.531250000000 7.687500000000 7.299987792969 109 109 109
24.531250000000 7.812500000000 7.298980712891 118 118 118
24.531250000000 7.875000000000 7.302978515625 114 114 114
24.531250000000 8.062500000000 7.302001953125 116 116 116
24.531250000000 8.187500000000 7.431976318359 15 15 15
24.531250000000 8.187500000000 7.298980712891 102 102 102
24.531250000000 8.312500000000 7.296997070313 92 92 92
24.531250000000 8.500000000000 7.296997070313 98 98 98
24.625000000000 8.375000000000 7.191986083984 166 166 166
24.656250000000 8.375000000000 7.070983886719 130 130 130
24.531250000000 8.625000000000 7.293975830078 104 104 104
24.656250000000 8.562500000000 7.192993164063 184 184 184
24.656250000000 8.562500000000 7.073974609375 189 189 189
24.531250000000 8.687500000000 7.292999267578 101 101 101
24.656250000000 8.687500000000 7.190979003906 185 185 185
24.656250000000 8.687500000000 7.071990966797 203 203 203
24.531250000000 8.875000000000 7.295989990234 108 108 108
24.656250000000 8.812500000000 7.195983886719 158 158 158
24.656250000000 8.812500000000 7.075988769531 197 197 197
24.562500000000 9.000000000000 7.295989990234 103 103 103
24.656250000000 8.937500000000 7.194976806641 117 117 117
24.656250000000 9.000000000000 7.080993652344 203 203 203
24.500000000000 9.187500000000 7.302001953125 108 108 108
24.656250000000 9.062500000000 7.197998046875 161 161 161
24.656250000000 9.062500000000 7.079986572266 207 207 207
24.593750000000 9.312500000000 7.300994873047 107 107 107
24.593750000000 9.250000000000 7.196990966797 151 151 151
24.656250000000 9.187500000000 7.082977294922 199 199 199
24.593750000000 9.437500000000 7.304992675781 109 109 109
24.593750000000 9.437500000000 7.200988769531 206 206 206
24.687500000000 9.375000000000 7.080993652344 189 189 189
24.531250000000 9.562500000000 7.305999755859 101 101 101
24.656250000000 9.500000000000 7.201995849609 120 120 120
24.687500000000 9.500000000000 7.082000732422 203 203 203
24.593750000000 9.687500000000 7.302978515625 99 99 99
24.625000000000 9.625000000000 7.201995849609 185 185 185
24.687500000000 9.625000000000 7.079986572266 188 188 188
24.593750000000 9.812500000000 7.298980712891 94 94 94
24.625000000000 9.812500000000 7.196990966797 204 204 204
24.718750000000 9.750000000000 7.076995849609 202 202 202
24.531250000000 10.000000000000 7.298980712891 83 83 83
24.687500000000 9.875000000000 7.194976806641 156 156 156
24.718750000000 9.875000000000 7.074981689453 204 204 204
24.593750000000 10.125000000000 7.299987792969 71 71 71
24.625000000000 10.062500000000 7.194976806641 140 140 140
24.718750000000 10.000000000000 7.072998046875 203 203 203
24.593750000000 10.187500000000 7.421997070313 15 15 15
24.593750000000 10.187500000000 7.298980712891 78 78 78
24.656250000000 10.250000000000 7.192993164063 109 109 109
24.718750000000 10.187500000000 7.071990966797 203 203 203
24.593750000000 10.312500000000 7.431976318359 21 21 21
24.531250000000 10.375000000000 7.296997070313 76 76 76
24.718750000000 10.250000000000 7.192993164063 129 129 129
24.718750000000 10.312500000000 7.072998046875 202 202 202
24.531250000000 10.562500000000 7.297973632813 74 74 74
24.656250000000 10.437500000000 7.194976806641 178 178 178
24.656250000000 10.437500000000 7.074981689453 199 199 199
24.625000000000 10.625000000000 7.564971923828 56 56 56
24.625000000000 10.625000000000 7.304992675781 83 83 83
24.656250000000 10.625000000000 7.202972412109 71 71 71
24.718750000000 10.562500000000 7.079986572266 133 133 133
24.562500000000 10.750000000000 7.303985595703 82 82 82
24.718750000000 10.687500000000 7.076995849609 13 13 13
24.593750000000 11.000000000000 7.696990966797 56 56 56
24.593750000000 11.000000000000 7.303985595703 78 78 78
24.593750000000 11.000000000000 7.308990478516 93 93 93
24.593750000000 11.187500000000 7.308990478516 76 76 76
24.656250000000 11.312500000000 7.832000732422 30 30 30
24.593750000000 11.375000000000 7.299987792969 48 48 48
24.781250000000 11.250000000000 7.090972900391 20 20 20
24.593750000000 11.437500000000 7.306976318359 28 28 28
24.781250000000 11.375000000000 7.083984375000 44 44 44
24.593750000000 11.625000000000 7.963989257813 66 66 66
24.593750000000 11.625000000000 7.303985595703 20 20 20
24.718750000000 11.500000000000 7.084991455078 47 47 47
24.656250000000 11.687500000000 7.303985595703 18 18 18
24.781250000000 11.625000000000 7.086975097656 59 59 59
24.593750000000 11.812500000000 8.083984375000 53 53 53
24.593750000000 11.812500000000 7.302978515625 15 15 15
24.781250000000 11.812500000000 7.083984375000 53 53 53
24.593750000000 12.000000000000 7.300994873047 43 43 43
24.718750000000 11.875000000000 7.084991455078 102 102 102
24.593750000000 12.125000000000 8.215972900391 37 37 37
24.593750000000 12.187500000000 7.300994873047 10 10 10
24.781250000000 12.000000000000 7.091979980469 14 14 14
24.781250000000 12.000000000000 6.958984375000 93 93 93
24.625000000000 12.312500000000 7.431976318359 9 9 9
24.625000000000 12.250000000000 7.308990478516 58 58 58
24.593750000000 12.437500000000 8.349975585938 29 29 29
24.656250000000 12.375000000000 6.928985595703 29 29 29
24.656250000000 12.562500000000 6.927978515625 19 19 19
24.531250000000 12.750000000000 8.475982666016 5 5 5
24.656250000000 12.687500000000 7.046997070313 113 113 113
24.656250000000 12.625000000000 6.936981201172 13 13 13
24.625000000000 12.875000000000 8.484985351563 61 61 61
24.531250000000 13.000000000000 8.859985351563 96 96 96
24.531250000000 13.000000000000 8.720001220703 99 99 99
24.531250000000 13.000000000000 8.584991455078 104 104 104
24.531250000000 13.000000000000 8.448974609375 110 110 110
24.531250000000 13.000000000000 8.315979003906 108 108 108
24.531250000000 13.000000000000 8.183990478516 108 108 108
24.531250000000 13.000000000000 8.050994873047 109 109 109
24.531250000000 13.000000000000 7.923980712891 106 106 106
24.531250000000 13.000000000000 7.790985107422 103 103 103
24.562500000000 13.000000000000 7.664001464844 101 101 101
24.562500000000 12.937500000000 7.536987304688 96 96 96
24.562500000000 12.937500000000 7.407989501953 109 109 109
24.562500000000 12.937500000000 7.283996582031 103 103 103
24.593750000000 13.000000000000 7.159973144531 89 89 89
24.593750000000 13.000000000000 7.034973144531 125 125 125
24.562500000000 12.937500000000 6.904998779297 90 90 90
24.593750000000 13.000000000000 6.783996582031 61 61 61
24.593750000000 13.000000000000 6.659973144531 74 74 74
24.593750000000 13.000000000000 6.539001464844 45 45 45
24.593750000000 13.000000000000 6.414978027344 29 29 29
24.593750000000 13.000000000000 6.292999267578 4 4 4
24.781250000000 12.875000000000 4.113983154297 239 239 239
24.781250000000 12.875000000000 3.991973876953 214 214 214
24.781250000000 12.875000000000 3.868988037109 187 187 187
24.781250000000 12.875000000000 3.746978759766 10 10 10
24.531250000000 13.125000000000 8.870971679688 129 129 129
24.531250000000 13.125000000000 8.733001708984 130 130 130
24.562500000000 13.125000000000 8.598999023438 134 134 134
24.562500000000 13.125000000000 8.464996337891 155 155 155
24.562500000000 13.125000000000 8.325988769531 155 155 155
24.562500000000 13.125000000000 8.194976806641 156 156 156
24.562500000000 13.125000000000 8.059997558594 154 154 154
24.593750000000 13.125000000000 7.933990478516 163 163 163
24.562500000000 13.125000000000 7.800994873047 165 165 165
24.593750000000 13.125000000000 7.675994873047 167 167 167
24.593750000000 13.125000000000 7.542999267578 175 175 175
24.593750000000 13.125000000000 7.412994384766 175 175 175
24.656250000000 13.062500000000 7.290985107422 177 177 177
24.656250000000 13.062500000000 7.164001464844 187 187 187
24.656250000000 13.062500000000 7.035980224609 184 184 184
24.656250000000 13.062500000000 6.911987304688 188 188 188
24.656250000000 13.062500000000 6.786987304688 187 187 187
24.656250000000 13.062500000000 6.662994384766 180 180 180
24.656250000000 13.062500000000 6.539978027344 186 186 186
24.656250000000 13.062500000000 6.416992187500 185 185 185
24.656250000000 13.062500000000 6.292999267578 189 189 189
24.656250000000 13.062500000000 6.170989990234 192 192 192
24.656250000000 13.125000000000 6.048980712891 191 191 191
24.656250000000 13.125000000000 5.925994873047 195 195 195
24.656250000000 13.125000000000 5.804992675781 193 193 193
24.656250000000 13.125000000000 5.684997558594 200 200 200
24.656250000000 13.125000000000 5.563995361328 196 196 196
24.656250000000 13.125000000000 5.441986083984 196 196 196
24.656250000000 13.125000000000 5.321990966797 201 201 201
24.656250000000 13.125000000000 5.201995849609 203 203 203
24.656250000000 13.125000000000 5.080993652344 198 198 198
24.656250000000 13.125000000000 4.960998535156 208 208 208
24.656250000000 13.125000000000 4.839996337891 201 201 201
24.656250000000 13.125000000000 4.720001220703 199 199 199
24.656250000000 13.125000000000 4.598999023438 208 208 208
