15.781250000000 13.000000000000 7.833984375000 196 196 196
15.843750000000 13.125000000000 7.823974609375 189 189 189
15.781250000000 13.250000000000 7.836975097656 195 195 195
15.781250000000 13.375000000000 7.832000732422 169 169 169
15.843750000000 13.500000000000 7.843994140625 150 150 150
15.781250000000 13.687500000000 7.866973876953 138 138 138
15.812500000000 13.812500000000 7.907989501953 127 127 127
15.875000000000 13.875000000000 7.896972656250 127 127 127
15.843750000000 14.125000000000 7.819976806641 86 86 86
15.843750000000 14.250000000000 7.840972900391 146 146 146
15.843750000000 14.187500000000 8.599975585938 71 71 71
15.843750000000 14.375000000000 7.829986572266 174 174 174
15.843750000000 14.375000000000 8.576995849609 40 40 40
15.843750000000 14.500000000000 7.822998046875 178 178 178
15.843750000000 14.625000000000 7.833984375000 173 173 173
15.875000000000 14.812500000000 7.833984375000 177 177 177
15.875000000000 14.875000000000 7.825988769531 180 180 180
15.906250000000 15.000000000000 7.833984375000 200 200 200
15.906250000000 15.187500000000 7.823974609375 191 191 191
15.906250000000 15.312500000000 7.843994140625 220 220 220
15.906250000000 15.437500000000 7.827972412109 188 188 188
15.906250000000 15.625000000000 7.836975097656 192 192 192
15.906250000000 15.750000000000 7.819000244141 179 179 179
15.906250000000 15.812500000000 7.854980468750 134 134 134
15.906250000000 16.000000000000 7.911987304688 118 118 118
15.937500000000 16.125000000000 7.828979492188 76 76 76
15.968750000000 16.250000000000 7.838989257813 154 154 154
15.937500000000 16.250000000000 8.631988525391 71 71 71
15.968750000000 16.437500000000 7.832977294922 162 162 162
15.937500000000 16.437500000000 8.639984130859 72 72 72
15.968750000000 16.562500000000 7.830993652344 172 172 172
15.968750000000 16.562500000000 8.649993896484 76 76 76
15.968750000000 16.750000000000 7.828979492188 172 172 172
15.968750000000 16.687500000000 8.646972656250 78 78 78
15.968750000000 16.812500000000 7.819976806641 179 179 179
15.968750000000 16.812500000000 8.651000976563 77 77 77
15.968750000000 16.937500000000 7.826995849609 167 167 167
15.968750000000 16.937500000000 8.651977539063 70 70 70
15.968750000000 17.125000000000 7.836975097656 163 163 163
15.968750000000 17.125000000000 8.671997070313 63 63 63
16.000000000000 17.250000000000 7.820983886719 174 174 174
15.968750000000 17.250000000000 8.664978027344 39 39 39
16.000000000000 17.375000000000 7.821990966797 179 179 179
16.000000000000 17.500000000000 7.817993164063 180 180 180
15.937500000000 17.687500000000 7.817993164063 178 178 178
16.000000000000 17.750000000000 7.830993652344 170 170 170
16.000000000000 17.937500000000 7.833984375000 119 119 119
15.968750000000 18.125000000000 7.901000976563 84 84 84
16.062500000000 18.375000000000 7.806976318359 52 52 52
16.000000000000 18.500000000000 7.807983398438 107 107 107
16.062500000000 18.562500000000 7.817993164063 132 132 132
16.062500000000 18.562500000000 8.704986572266 46 46 46
16.062500000000 18.750000000000 7.822998046875 150 150 150
16.093750000000 18.750000000000 8.705993652344 53 53 53
16.031250000000 18.937500000000 7.822998046875 168 168 168
16.031250000000 18.937500000000 8.708984375000 52 52 52
16.093750000000 19.000000000000 7.819976806641 146 146 146
16.093750000000 19.000000000000 8.720001220703 56 56 56
16.093750000000 19.125000000000 7.822998046875 164 164 164
16.093750000000 19.125000000000 8.727996826172 59 59 59
16.031250000000 19.250000000000 7.820983886719 168 168 168
16.031250000000 19.250000000000 8.728973388672 63 63 63
16.031250000000 19.437500000000 7.817993164063 168 168 168
16.031250000000 19.437500000000 8.731994628906 73 73 73
16.093750000000 19.562500000000 7.813995361328 175 175 175
16.093750000000 19.562500000000 8.742980957031 75 75 75
16.031250000000 19.687500000000 7.817993164063 177 177 177
16.031250000000 19.687500000000 8.735992431641 75 75 75
16.031250000000 19.875000000000 7.813995361328 174 174 174
16.031250000000 19.875000000000 8.738983154297 77 77 77
16.031250000000 19.937500000000 7.822998046875 165 165 165
16.031250000000 19.937500000000 8.739990234375 66 66 66
16.031250000000 20.062500000000 7.826995849609 159 159 159
16.062500000000 20.062500000000 8.760986328125 65 65 65
15.343750000000 0.062500000000 7.863983154297 168 168 168
15.406250000000 0.125000000000 7.855987548828 182 182 182
15.343750000000 0.312500000000 7.869995117188 206 206 206
15.343750000000 0.500000000000 7.852996826172 200 200 200
15.343750000000 0.500000000000 8.471984863281 41 41 41
15.343750000000 0.625000000000 7.858001708984 191 191 191
15.406250000000 0.562500000000 8.489990234375 58 58 58
15.343750000000 0.687500000000 7.849975585938 184 184 184
15.343750000000 0.687500000000 8.468994140625 63 63 63
15.343750000000 0.875000000000 7.858978271484 161 161 161
15.375000000000 0.875000000000 8.481994628906 70 70 70
15.375000000000 1.000000000000 7.863983154297 120 120 120
15.375000000000 1.125000000000 7.864990234375 100 100 100
15.406250000000 1.312500000000 7.849975585938 61 61 61
15.406250000000 1.312500000000 7.984985351563 105 105 105
15.468750000000 1.375000000000 7.896972656250 129 129 129
15.406250000000 1.500000000000 7.869995117188 143 143 143
15.406250000000 1.687500000000 7.851989746094 197 197 197
15.468750000000 1.750000000000 7.865997314453 204 204 204
15.406250000000 1.937500000000 7.856994628906 189 189 189
15.406250000000 2.125000000000 7.852996826172 188 188 188
15.468750000000 2.125000000000 7.850982666016 200 200 200
15.406250000000 2.312500000000 7.863983154297 212 212 212
15.437500000000 2.500000000000 7.859985351563 221 221 221
15.437500000000 2.625000000000 7.860992431641 207 207 207
15.437500000000 2.750000000000 7.845001220703 203 203 203
15.437500000000 2.875000000000 7.842987060547 180 180 180
15.468750000000 3.000000000000 7.851989746094 157 157 157
15.468750000000 3.125000000000 7.859985351563 102 102 102
15.468750000000 3.125000000000 7.950988769531 108 108 108
15.468750000000 3.312500000000 7.858001708984 61 61 61
15.468750000000 3.312500000000 7.866973876953 140 140 140
15.531250000000 3.375000000000 7.853973388672 197 197 197
15.468750000000 3.562500000000 7.851989746094 196 196 196
15.468750000000 3.750000000000 7.868988037109 213 213 213
15.562500000000 3.750000000000 7.847991943359 210 210 210
15.500000000000 3.937500000000 7.866973876953 222 222 222
15.500000000000 4.125000000000 7.860992431641 217 217 217
15.500000000000 4.250000000000 7.865997314453 236 236 236
15.500000000000 4.375000000000 7.862976074219 238 238 238
15.531250000000 4.500000000000 7.849975585938 222 222 222
15.531250000000 4.625000000000 7.858978271484 212 212 212
15.531250000000 4.750000000000 7.850982666016 222 222 222
15.531250000000 4.937500000000 7.852996826172 169 169 169
15.531250000000 5.062500000000 7.854980468750 168 168 168
15.531250000000 5.000000000000 7.861999511719 60 60 60
15.531250000000 5.187500000000 7.856994628906 88 88 88
15.531250000000 5.125000000000 7.870971679688 158 158 158
15.531250000000 5.312500000000 7.851989746094 73 73 73
15.562500000000 5.312500000000 7.850982666016 158 158 158
15.531250000000 5.437500000000 7.833984375000 54 54 54
15.562500000000 5.375000000000 7.838989257813 202 202 202
15.562500000000 5.625000000000 7.846984863281 48 48 48
15.562500000000 5.562500000000 7.858978271484 208 208 208
15.562500000000 5.750000000000 7.856994628906 237 237 237
15.562500000000 5.812500000000 7.858001708984 252 252 252
15.593750000000 6.000000000000 7.851989746094 252 252 252
15.593750000000 6.125000000000 7.850982666016 252 252 252
15.593750000000 6.250000000000 7.854980468750 252 252 252
15.593750000000 6.375000000000 7.854980468750 252 252 252
15.593750000000 6.562500000000 7.843994140625 252 252 252
15.593750000000 6.625000000000 7.845977783203 252 252 252
15.593750000000 6.750000000000 7.853973388672 252 252 252
15.593750000000 6.937500000000 7.848999023438 252 252 252
15.593750000000 7.062500000000 7.849975585938 252 252 252
15.593750000000 7.250000000000 7.840972900391 251 251 251
15.625000000000 7.375000000000 7.858001708984 247 247 247
15.625000000000 7.437500000000 7.860992431641 240 240 240
15.625000000000 7.625000000000 7.856994628906 235 235 235
15.656250000000 7.750000000000 7.852996826172 188 188 188
15.656250000000 7.750000000000 7.850982666016 36 36 36
15.656250000000 7.875000000000 7.856994628906 139 139 139
15.656250000000 7.812500000000 7.853973388672 90 90 90
15.656250000000 8.000000000000 7.853973388672 88 88 88
15.656250000000 8.000000000000 7.842987060547 163 163 163
15.656250000000 8.125000000000 7.845001220703 51 51 51
15.656250000000 8.187500000000 7.848999023438 232 232 232
15.656250000000 8.250000000000 7.836975097656 227 227 227
15.656250000000 8.375000000000 7.834991455078 239 239 239
15.656250000000 8.500000000000 7.833984375000 232 232 232
15.656250000000 8.687500000000 7.850982666016 235 235 235
15.656250000000 8.750000000000 7.842987060547 228 228 228
15.687500000000 8.875000000000 7.839996337891 242 242 242
15.687500000000 9.062500000000 7.842987060547 238 238 238
15.718750000000 9.250000000000 7.847991943359 218 218 218
15.718750000000 9.312500000000 7.835998535156 231 231 231
15.718750000000 9.500000000000 7.832000732422 213 213 213
15.718750000000 9.625000000000 7.833984375000 251 251 251
15.718750000000 9.687500000000 7.838989257813 233 233 233
15.718750000000 9.875000000000 7.835998535156 205 205 205
15.718750000000 10.062500000000 7.835998535156 163 163 163
15.656250000000 10.187500000000 7.840972900391 124 124 124
15.718750000000 10.125000000000 7.858001708984 60 60 60
15.718750000000 10.250000000000 7.839996337891 77 77 77
15.750000000000 10.312500000000 7.839996337891 98 98 98
15.718750000000 10.437500000000 7.833984375000 72 72 72
15.750000000000 10.375000000000 7.829986572266 164 164 164
15.656250000000 10.562500000000 7.830993652344 59 59 59
15.750000000000 10.500000000000 7.828979492188 203 203 203
15.781250000000 10.687500000000 7.835998535156 226 226 226
15.781250000000 10.812500000000 7.832000732422 222 222 222
15.781250000000 10.937500000000 7.830993652344 232 232 232
15.781250000000 11.125000000000 7.835998535156 241 241 241
15.781250000000 11.250000000000 7.824981689453 230 230 230
15.781250000000 11.312500000000 7.827972412109 221 221 221
15.781250000000 11.500000000000 7.836975097656 242 242 242
15.781250000000 11.687500000000 7.836975097656 241 241 241
15.781250000000 11.750000000000 7.835998535156 252 252 252
15.781250000000 11.875000000000 7.832977294922 251 251 251
15.718750000000 12.062500000000 7.825988769531 234 234 234
15.750000000000 12.187500000000 7.838989257813 243 243 243
15.812500000000 12.312500000000 7.827972412109 191 191 191
15.781250000000 12.500000000000 7.841979980469 135 135 135
15.843750000000 12.437500000000 7.849975585938 45 45 45
15.781250000000 12.562500000000 7.873992919922 105 105 105
15.843750000000 12.500000000000 7.841979980469 102 102 102
15.843750000000 12.687500000000 7.873992919922 88 88 88
15.843750000000 12.687500000000 7.821990966797 196 196 196
15.781250000000 12.875000000000 7.828979492188 216 216 216
15.843750000000 12.937500000000 7.836975097656 231 231 231
15.843750000000 13.125000000000 7.827972412109 226 226 226
15.781250000000 13.312500000000 7.839996337891 225 225 225
15.843750000000 13.312500000000 7.834991455078 221 221 221
15.843750000000 13.500000000000 7.836975097656 206 206 206
15.812500000000 13.687500000000 7.839996337891 208 208 208
15.812500000000 13.812500000000 7.842987060547 226 226 226
15.906250000000 13.937500000000 7.840972900391 236 236 236
15.843750000000 14.062500000000 7.850982666016 252 252 252
15.843750000000 14.187500000000 7.846984863281 237 237 237
15.906250000000 14.312500000000 7.838989257813 207 207 207
15.843750000000 14.500000000000 7.856994628906 136 136 136
15.843750000000 14.625000000000 7.886993408203 119 119 119
15.906250000000 14.562500000000 7.848999023438 76 76 76
15.906250000000 14.750000000000 7.916992187500 120 120 120
15.906250000000 14.750000000000 7.847991943359 131 131 131
15.843750000000 14.875000000000 7.828979492188 165 165 165
15.937500000000 14.937500000000 7.830993652344 186 186 186
15.937500000000 15.125000000000 7.838989257813 194 194 194
15.875000000000 15.312500000000 8.608001708984 57 57 57
15.875000000000 15.312500000000 7.839996337891 198 198 198
15.968750000000 15.375000000000 7.825988769531 198 198 198
15.937500000000 15.500000000000 7.832000732422 176 176 176
15.906250000000 15.687500000000 7.826995849609 168 168 168
15.906250000000 15.812500000000 7.833984375000 163 163 163
15.968750000000 15.937500000000 7.821990966797 200 200 200
15.906250000000 16.125000000000 7.825988769531 201 201 201
15.906250000000 16.250000000000 7.836975097656 199 199 199
15.968750000000 16.312500000000 7.845977783203 139 139 139
15.906250000000 16.500000000000 7.872985839844 125 125 125
15.906250000000 16.625000000000 7.885986328125 132 132 132
15.937500000000 16.812500000000 7.914978027344 117 117 117
16.000000000000 16.750000000000 7.834991455078 38 38 38
15.937500000000 16.937500000000 7.832977294922 79 79 79
16.031250000000 17.000000000000 7.824981689453 136 136 136
16.031250000000 17.125000000000 7.823974609375 156 156 156
15.968750000000 17.312500000000 7.829986572266 176 176 176
15.968750000000 17.437500000000 8.672973632813 61 61 61
15.968750000000 17.437500000000 7.824981689453 177 177 177
16.031250000000 17.562500000000 8.685974121094 63 63 63
16.031250000000 17.562500000000 7.815979003906 165 165 165
15.968750000000 17.750000000000 8.687988281250 70 70 70
15.968750000000 17.750000000000 7.821990966797 164 164 164
15.968750000000 17.812500000000 8.670989990234 63 63 63
15.968750000000 17.812500000000 7.824981689453 180 180 180
16.031250000000 17.937500000000 8.687988281250 48 48 48
16.031250000000 17.937500000000 7.822998046875 199 199 199
15.968750000000 18.125000000000 8.684997558594 37 37 37
16.000000000000 18.125000000000 7.815979003906 189 189 189
16.000000000000 18.250000000000 7.815979003906 202 202 202
16.000000000000 18.437500000000 7.815979003906 190 190 190
16.000000000000 18.500000000000 7.808990478516 189 189 189
16.000000000000 18.625000000000 7.813995361328 157 157 157
16.031250000000 18.812500000000 7.822998046875 126 126 126
16.031250000000 18.937500000000 7.843994140625 81 81 81
16.093750000000 19.187500000000 7.812988281250 139 139 139
16.031250000000 19.250000000000 7.811981201172 163 163 163
16.093750000000 19.375000000000 8.735992431641 59 59 59
16.031250000000 19.437500000000 7.819976806641 176 176 176
16.093750000000 19.562500000000 8.728973388672 57 57 57
16.093750000000 19.562500000000 7.807983398438 174 174 174
16.031250000000 19.687500000000 8.722991943359 53 53 53
16.031250000000 19.687500000000 7.813995361328 171 171 171
16.062500000000 19.875000000000 8.748992919922 54 54 54
16.062500000000 19.875000000000 7.808990478516 158 158 158
16.062500000000 20.000000000000 8.745971679688 51 51 51
16.062500000000 20.000000000000 7.821990966797 165 165 165
16.093750000000 20.062500000000 8.748992919922 46 46 46
16.093750000000 20.062500000000 7.820983886719 157 157 157
10.375000000000 0.062500000000 8.677001953125 70 70 70
10.375000000000 0.250000000000 8.677001953125 66 66 66
10.406250000000 0.375000000000 8.677978515625 42 42 42
10.406250000000 0.500000000000 8.688995361328 18 18 18
10.406250000000 0.687500000000 8.692993164063 17 17 17
11.718750000000 0.125000000000 8.000000000000 111 111 111
11.718750000000 0.250000000000 7.998992919922 120 120 120
11.718750000000 0.375000000000 8.000000000000 110 110 110
10.406250000000 1.187500000000 8.694976806641 18 18 18
11.750000000000 0.500000000000 8.001983642578 112 112 112
10.406250000000 1.375000000000 8.686981201172 13 13 13
11.750000000000 0.625000000000 8.008972167969 118 118 118
12.625000000000 0.250000000000 8.380981445313 28 28 28
11.750000000000 0.812500000000 8.004974365234 126 126 126
12.625000000000 0.375000000000 8.379974365234 57 57 57
11.781250000000 0.937500000000 8.015991210938 135 135 135
12.625000000000 0.500000000000 8.380981445313 88 88 88
11.781250000000 1.000000000000 8.015991210938 140 140 140
12.656250000000 0.625000000000 8.388977050781 111 111 111
11.781250000000 1.187500000000 8.021972656250 144 144 144
12.656250000000 0.812500000000 8.373992919922 128 128 128
11.718750000000 1.312500000000 8.026977539063 146 146 146
12.656250000000 0.875000000000 8.381988525391 138 138 138
11.718750000000 1.500000000000 8.031982421875 149 149 149
12.656250000000 1.062500000000 8.388977050781 135 135 135
11.718750000000 1.625000000000 8.041992187500 147 147 147
12.656250000000 1.187500000000 8.386993408203 138 138 138
11.718750000000 1.687500000000 8.039001464844 148 148 148
12.656250000000 1.312500000000 8.389984130859 137 137 137
11.718750000000 1.875000000000 8.040985107422 141 141 141
12.656250000000 1.500000000000 8.389984130859 136 136 136
11.718750000000 2.062500000000 8.036987304688 142 142 142
12.656250000000 1.625000000000 8.383972167969 134 134 134
11.718750000000 2.125000000000 8.031982421875 132 132 132
15.343750000000 0.062500000000 7.929992675781 126 126 126
12.656250000000 1.687500000000 8.388977050781 131 131 131
11.718750000000 2.312500000000 8.033996582031 135 135 135
15.406250000000 0.125000000000 7.860992431641 53 53 53
15.343750000000 0.187500000000 7.979980468750 120 120 120
12.656250000000 1.875000000000 8.382995605469 120 120 120
11.718750000000 2.437500000000 8.036987304688 129 129 129
15.343750000000 0.312500000000 7.861999511719 71 71 71
15.343750000000 0.312500000000 8.465972900391 78 78 78
12.625000000000 2.000000000000 8.379974365234 98 98 98
11.718750000000 2.562500000000 8.053985595703 130 130 130
15.406250000000 0.437500000000 7.864990234375 93 93 93
15.343750000000 0.500000000000 8.449981689453 74 74 74
12.687500000000 2.125000000000 8.383972167969 71 71 71
11.718750000000 2.750000000000 8.071990966797 132 132 132
15.437500000000 0.562500000000 7.869995117188 118 118 118
15.406250000000 0.562500000000 8.483001708984 73 73 73
12.687500000000 2.250000000000 8.384979248047 44 44 44
11.093750000000 3.187500000000 8.670989990234 86 86 86
15.375000000000 0.750000000000 7.854980468750 145 145 145
15.375000000000 0.750000000000 8.475982666016 65 65 65
11.093750000000 3.375000000000 8.671997070313 84 84 84
15.375000000000 0.875000000000 7.845977783203 192 192 192
15.375000000000 0.875000000000 8.476989746094 60 60 60
11.093750000000 3.562500000000 8.670989990234 82 82 82
15.468750000000 0.937500000000 7.853973388672 209 209 209
15.406250000000 1.000000000000 8.487976074219 54 54 54
11.093750000000 3.625000000000 8.667999267578 84 84 84
15.406250000000 1.125000000000 7.862976074219 212 212 212
15.406250000000 1.125000000000 8.464996337891 41 41 41
11.125000000000 3.750000000000 8.660980224609 79 79 79
15.406250000000 1.312500000000 7.861999511719 210 210 210
11.125000000000 3.937500000000 8.668975830078 75 75 75
15.468750000000 1.375000000000 7.858001708984 186 186 186
11.687500000000 3.687500000000 8.125976562500 112 112 112
15.406250000000 1.500000000000 7.858001708984 189 189 189
11.156250000000 4.187500000000 8.653991699219 71 71 71
15.406250000000 1.687500000000 7.852996826172 175 175 175
11.156250000000 4.375000000000 8.658996582031 60 60 60
15.406250000000 1.812500000000 7.854980468750 187 187 187
12.656250000000 3.562500000000 8.370971679688 35 35 35
11.156250000000 4.437500000000 8.649993896484 61 61 61
15.406250000000 1.937500000000 7.854980468750 161 161 161
12.656250000000 3.625000000000 8.368988037109 47 47 47
11.156250000000 4.562500000000 8.647979736328 61 61 61
15.406250000000 2.125000000000 7.863983154297 121 121 121
12.656250000000 3.812500000000 8.379974365234 75 75 75
11.156250000000 4.750000000000 8.642974853516 64 64 64
15.406250000000 2.250000000000 7.903991699219 98 98 98
12.656250000000 3.937500000000 8.364990234375 91 91 91
11.156250000000 4.812500000000 8.648986816406 65 65 65
15.437500000000 2.312500000000 7.966979980469 85 85 85
12.656250000000 4.062500000000 8.375976562500 121 121 121
11.156250000000 5.000000000000 8.652984619141 85 85 85
15.468750000000 2.500000000000 7.853973388672 70 70 70
15.468750000000 2.500000000000 8.461975097656 77 77 77
12.656250000000 4.250000000000 8.372985839844 120 120 120
11.156250000000 5.125000000000 8.649993896484 68 68 68
15.500000000000 2.562500000000 7.841979980469 98 98 98
15.500000000000 2.562500000000 8.473999023438 81 81 81
12.625000000000 4.375000000000 8.382995605469 128 128 128
11.156250000000 5.250000000000 8.652984619141 64 64 64
15.468750000000 2.750000000000 7.846984863281 181 181 181
15.468750000000 2.750000000000 8.476989746094 74 74 74
12.687500000000 4.437500000000 8.373992919922 125 125 125
11.187500000000 5.375000000000 8.652984619141 61 61 61
15.468750000000 2.937500000000 7.853973388672 203 203 203
15.468750000000 2.937500000000 8.489990234375 71 71 71
12.687500000000 4.625000000000 8.380981445313 131 131 131
11.187500000000 5.500000000000 8.662994384766 33 33 33
15.531250000000 2.937500000000 7.858001708984 201 201 201
15.468750000000 3.000000000000 8.488983154297 59 59 59
12.656250000000 4.750000000000 8.381988525391 130 130 130
11.187500000000 5.687500000000 8.654998779297 32 32 32
15.468750000000 3.125000000000 7.855987548828 189 189 189
15.468750000000 3.125000000000 8.486999511719 58 58 58
12.656250000000 4.937500000000 8.381988525391 136 136 136
11.187500000000 5.875000000000 8.662994384766 19 19 19
15.468750000000 3.312500000000 7.862976074219 159 159 159
15.468750000000 3.312500000000 8.493988037109 57 57 57
12.718750000000 5.000000000000 8.383972167969 133 133 133
15.531250000000 3.375000000000 7.854980468750 156 156 156
15.468750000000 3.437500000000 8.484985351563 43 43 43
12.656250000000 5.125000000000 8.382995605469 130 130 130
15.468750000000 3.562500000000 7.860992431641 159 159 159
15.468750000000 3.562500000000 8.491973876953 30 30 30
12.656250000000 5.312500000000 8.382995605469 125 125 125
15.468750000000 3.750000000000 7.858001708984 156 156 156
12.718750000000 5.437500000000 8.384979248047 119 119 119
15.500000000000 3.812500000000 7.862976074219 150 150 150
12.656250000000 5.562500000000 8.401000976563 105 105 105
11.218750000000 6.500000000000 8.665985107422 16 16 16
15.500000000000 3.937500000000 7.853973388672 109 109 109
12.656250000000 5.750000000000 8.386993408203 89 89 89
11.218750000000 6.625000000000 8.661987304688 15 15 15
15.500000000000 4.125000000000 7.853973388672 66 66 66
12.656250000000 5.875000000000 8.388977050781 77 77 77
12.656250000000 5.937500000000 8.388000488281 69 69 69
12.656250000000 6.125000000000 8.391998291016 74 74 74
12.656250000000 6.250000000000 8.398986816406 63 63 63
15.531250000000 4.500000000000 7.841979980469 71 71 71
15.531250000000 4.562500000000 7.858978271484 114 114 114
15.531250000000 4.562500000000 8.472991943359 41 41 41
12.687500000000 6.375000000000 8.394989013672 63 63 63
15.531250000000 4.750000000000 7.852996826172 163 163 163
15.531250000000 4.750000000000 8.470977783203 70 70 70
12.687500000000 6.500000000000 8.404998779297 46 46 46
15.531250000000 4.937500000000 7.858978271484 184 184 184
15.531250000000 4.937500000000 8.483978271484 78 78 78
12.687500000000 6.625000000000 8.395996093750 39 39 39
15.531250000000 5.000000000000 7.855987548828 188 188 188
15.531250000000 5.000000000000 8.481994628906 75 75 75
12.687500000000 6.812500000000 8.409973144531 20 20 20
15.531250000000 5.125000000000 8.478973388672 78 78 78
15.531250000000 5.125000000000 7.868988037109 185 185 185
15.562500000000 5.312500000000 8.473999023438 75 75 75
15.562500000000 5.312500000000 7.873992919922 166 166 166
15.562500000000 5.375000000000 7.869995117188 163 163 163
15.562500000000 5.437500000000 8.481994628906 68 68 68
15.562500000000 5.562500000000 8.485992431641 60 60 60
15.562500000000 5.562500000000 7.862976074219 146 146 146
15.562500000000 5.750000000000 7.859985351563 123 123 123
15.562500000000 5.750000000000 8.476989746094 52 52 52
15.562500000000 5.875000000000 8.483978271484 55 55 55
15.562500000000 5.875000000000 7.851989746094 139 139 139
15.593750000000 6.000000000000 8.480987548828 42 42 42
15.593750000000 6.000000000000 7.862976074219 88 88 88
15.593750000000 6.125000000000 8.467987060547 141 141 141
12.656250000000 7.875000000000 8.395996093750 27 27 27
15.593750000000 6.125000000000 7.871978759766 57 57 57
12.656250000000 8.187500000000 8.398986816406 23 23 23
11.781250000000 8.687500000000 8.123992919922 19 19 19
12.656250000000 8.312500000000 8.386993408203 38 38 38
11.781250000000 8.875000000000 8.123992919922 37 37 37
12.656250000000 8.500000000000 8.389984130859 57 57 57
11.750000000000 9.062500000000 8.125976562500 30 30 30
12.656250000000 8.562500000000 8.398986816406 73 73 73
11.750000000000 9.187500000000 8.142974853516 19 19 19
12.687500000000 8.750000000000 8.394989013672 94 94 94
12.687500000000 8.937500000000 8.401977539063 102 102 102
11.750000000000 9.437500000000 8.138000488281 17 17 17
12.687500000000 9.000000000000 8.405975341797 106 106 106
12.687500000000 9.125000000000 8.405975341797 109 109 109
11.843750000000 9.687500000000 8.134979248047 19 19 19
15.656250000000 7.375000000000 7.901000976563 110 110 110
12.687500000000 9.312500000000 8.403991699219 112 112 112
11.218750000000 10.250000000000 8.767974853516 15 15 15
11.750000000000 9.875000000000 8.149993896484 35 35 35
15.656250000000 7.375000000000 7.907989501953 144 144 144
12.687500000000 9.375000000000 8.401000976563 109 109 109
11.281250000000 10.250000000000 8.755981445313 53 53 53
11.781250000000 10.000000000000 8.144989013672 65 65 65
15.656250000000 7.562500000000 7.888977050781 142 142 142
15.656250000000 7.562500000000 8.486999511719 55 55 55
12.687500000000 9.562500000000 8.401977539063 112 112 112
11.281250000000 10.437500000000 8.751983642578 76 76 76
11.781250000000 10.125000000000 8.140991210938 83 83 83
15.656250000000 7.750000000000 7.902984619141 152 152 152
15.656250000000 7.750000000000 8.494995117188 67 67 67
15.656250000000 7.875000000000 8.495971679688 74 74 74
12.656250000000 9.750000000000 8.402984619141 105 105 105
11.218750000000 10.625000000000 8.766998291016 88 88 88
11.781250000000 10.250000000000 8.143981933594 96 96 96
15.656250000000 7.875000000000 7.915985107422 111 111 111
12.656250000000 9.875000000000 8.410980224609 111 111 111
11.281250000000 10.687500000000 8.760986328125 98 98 98
11.781250000000 10.375000000000 8.151000976563 103 103 103
15.656250000000 8.000000000000 8.504974365234 70 70 70
15.656250000000 8.187500000000 8.497985839844 63 63 63
12.718750000000 9.937500000000 8.414001464844 110 110 110
11.281250000000 10.875000000000 8.754974365234 104 104 104
11.781250000000 10.562500000000 8.146972656250 105 105 105
10.437500000000 11.312500000000 8.817993164063 16 16 16
12.656250000000 10.125000000000 8.416992187500 122 122 122
11.218750000000 11.000000000000 8.764984130859 99 99 99
11.781250000000 10.625000000000 8.149993896484 103 103 103
15.656250000000 8.250000000000 8.507995605469 53 53 53
12.656250000000 10.250000000000 8.421997070313 127 127 127
11.218750000000 11.125000000000 8.769989013672 98 98 98
11.781250000000 10.750000000000 8.151977539063 108 108 108
12.656250000000 10.437500000000 8.430999755859 129 129 129
11.312500000000 11.250000000000 8.771972656250 103 103 103
11.781250000000 10.937500000000 8.160980224609 106 106 106
12.656250000000 10.500000000000 8.430999755859 125 125 125
11.250000000000 11.437500000000 8.768981933594 88 88 88
11.781250000000 11.062500000000 8.164978027344 87 87 87
15.687500000000 8.687500000000 8.528991699219 36 36 36
12.656250000000 10.625000000000 8.438995361328 130 130 130
11.218750000000 11.500000000000 8.781982421875 100 100 100
11.781250000000 11.250000000000 8.171997070313 104 104 104
12.656250000000 10.812500000000 8.429992675781 124 124 124
11.312500000000 11.625000000000 8.777984619141 106 106 106
11.718750000000 11.375000000000 8.172973632813 105 105 105
12.656250000000 10.937500000000 8.437988281250 127 127 127
11.250000000000 11.812500000000 8.781982421875 105 105 105
11.781250000000 11.437500000000 8.169982910156 111 111 111
10.406250000000 12.375000000000 8.845977783203 17 17 17
12.656250000000 11.062500000000 8.439971923828 126 126 126
11.250000000000 11.937500000000 8.784973144531 97 97 97
11.812500000000 11.625000000000 8.175994873047 119 119 119
10.406250000000 12.500000000000 8.847991943359 33 33 33
12.656250000000 11.250000000000 8.435974121094 128 128 128
11.250000000000 12.125000000000 8.786987304688 86 86 86
11.750000000000 11.812500000000 8.182983398438 116 116 116
10.468750000000 12.562500000000 8.836975097656 51 51 51
12.687500000000 11.312500000000 8.432983398438 125 125 125
11.281250000000 12.250000000000 8.785980224609 62 62 62
11.750000000000 11.937500000000 8.180999755859 112 112 112
10.406250000000 12.750000000000 8.837982177734 65 65 65
12.687500000000 11.437500000000 8.438995361328 126 126 126
11.281250000000 12.312500000000 8.780975341797 37 37 37
11.812500000000 12.000000000000 8.184997558594 106 106 106
10.406250000000 12.875000000000 8.839996337891 73 73 73
12.687500000000 11.625000000000 8.441986083984 127 127 127
11.750000000000 12.187500000000 8.179992675781 99 99 99
10.406250000000 13.000000000000 8.848999023438 76 76 76
12.687500000000 11.750000000000 8.447998046875 129 129 129
11.781250000000 12.312500000000 8.186981201172 99 99 99
10.406250000000 13.125000000000 8.839996337891 72 72 72
12.718750000000 11.875000000000 8.453979492188 118 118 118
11.781250000000 12.500000000000 8.196990966797 98 98 98
10.406250000000 13.250000000000 8.845977783203 71 71 71
12.656250000000 12.062500000000 8.453979492188 107 107 107
11.218750000000 12.937500000000 8.809997558594 14 14 14
11.781250000000 12.625000000000 8.188995361328 103 103 103
10.406250000000 13.437500000000 8.862976074219 76 76 76
12.718750000000 12.125000000000 8.444976806641 98 98 98
11.281250000000 13.000000000000 8.813995361328 14 14 14
11.781250000000 12.687500000000 8.191986083984 99 99 99
10.437500000000 13.562500000000 8.862976074219 75 75 75
12.718750000000 12.312500000000 8.452972412109 95 95 95
11.781250000000 12.875000000000 8.203979492188 98 98 98
10.437500000000 13.687500000000 8.861999511719 76 76 76
12.656250000000 12.500000000000 8.450988769531 89 89 89
11.781250000000 13.000000000000 8.211975097656 90 90 90
10.468750000000 13.875000000000 8.869995117188 76 76 76
12.718750000000 12.562500000000 8.455993652344 85 85 85
11.781250000000 13.125000000000 8.205993652344 80 80 80
10.468750000000 13.937500000000 8.866973876953 77 77 77
12.718750000000 12.687500000000 8.458984375000 89 89 89
11.781250000000 13.312500000000 8.220001220703 71 71 71
10.468750000000 14.125000000000 8.871978759766 64 64 64
12.656250000000 12.875000000000 8.457000732422 97 97 97
11.781250000000 13.375000000000 8.225982666016 28 28 28
10.468750000000 14.250000000000 8.867980957031 57 57 57
12.656250000000 13.000000000000 8.455993652344 99 99 99
10.468750000000 14.375000000000 8.872985839844 38 38 38
12.718750000000 13.125000000000 8.462982177734 105 105 105
10.468750000000 14.500000000000 8.881988525391 22 22 22
12.656250000000 13.250000000000 8.460998535156 96 96 96
10.406250000000 14.687500000000 8.882995605469 18 18 18
12.656250000000 13.375000000000 8.474975585938 92 92 92
10.468750000000 14.750000000000 8.875976562500 14 14 14
12.687500000000 13.562500000000 8.474975585938 76 76 76
10.468750000000 14.937500000000 8.882995605469 15 15 15
12.687500000000 13.687500000000 8.480987548828 65 65 65
10.406250000000 15.062500000000 8.886993408203 18 18 18
12.718750000000 13.812500000000 8.484985351563 53 53 53
10.406250000000 15.187500000000 8.899993896484 25 25 25
12.718750000000 14.000000000000 8.488983154297 37 37 37
10.406250000000 15.375000000000 8.901000976563 15 15 15
12.718750000000 14.062500000000 8.496978759766 46 46 46
11.281250000000 15.000000000000 8.894989013672 34 34 34
12.718750000000 14.187500000000 8.495971679688 51 51 51
11.343750000000 15.000000000000 8.885986328125 65 65 65
12.718750000000 14.375000000000 8.487976074219 61 61 61
11.343750000000 15.187500000000 8.886993408203 96 96 96
12.718750000000 14.500000000000 8.494995117188 65 65 65
11.281250000000 15.375000000000 8.895996093750 104 104 104
12.718750000000 14.625000000000 8.503997802734 77 77 77
11.281250000000 15.500000000000 8.895996093750 107 107 107
12.718750000000 14.750000000000 8.500000000000 89 89 89
11.312500000000 15.687500000000 8.895996093750 96 96 96
11.781250000000 15.375000000000 8.311981201172 31 31 31
12.718750000000 14.875000000000 8.497985839844 60 60 60
11.312500000000 15.687500000000 8.899993896484 99 99 99
12.718750000000 15.062500000000 8.502990722656 69 69 69
11.312500000000 15.875000000000 8.907989501953 84 84 84
11.843750000000 15.562500000000 8.300994873047 58 58 58
12.718750000000 15.187500000000 8.490997314453 55 55 55
11.312500000000 16.062500000000 8.910980224609 83 83 83
11.781250000000 15.750000000000 8.311981201172 62 62 62
12.718750000000 15.250000000000 8.516998291016 25 25 25
11.343750000000 16.187500000000 8.915985107422 91 91 91
11.781250000000 15.875000000000 8.325988769531 44 44 44
12.718750000000 15.437500000000 8.521972656250 20 20 20
11.343750000000 16.312500000000 8.920989990234 80 80 80
11.812500000000 16.062500000000 8.319976806641 62 62 62
11.343750000000 16.500000000000 8.917999267578 70 70 70
11.812500000000 16.125000000000 8.330993652344 74 74 74
11.343750000000 16.562500000000 8.919982910156 59 59 59
11.843750000000 16.250000000000 8.322998046875 86 86 86
11.281250000000 16.750000000000 8.936981201172 29 29 29
11.843750000000 16.437500000000 8.334991455078 88 88 88
12.718750000000 16.062500000000 8.526000976563 27 27 27
11.843750000000 16.562500000000 8.334991455078 112 112 112
10.406250000000 17.375000000000 9.013977050781 12 12 12
12.718750000000 16.125000000000 8.526977539063 51 51 51
11.781250000000 16.750000000000 8.350982666016 119 119 119
10.468750000000 17.500000000000 9.002990722656 34 34 34
12.718750000000 16.312500000000 8.531982421875 59 59 59
11.781250000000 16.812500000000 8.347991943359 114 114 114
10.406250000000 17.687500000000 9.009979248047 48 48 48
12.718750000000 16.437500000000 8.526977539063 49 49 49
11.843750000000 16.937500000000 8.341979980469 107 107 107
10.437500000000 17.812500000000 9.006988525391 66 66 66
11.781250000000 17.125000000000 8.349975585938 117 117 117
10.437500000000 17.937500000000 9.016998291016 50 50 50
12.718750000000 16.750000000000 8.545989990234 35 35 35
11.781250000000 17.250000000000 8.356994628906 106 106 106
10.437500000000 18.062500000000 9.020996093750 62 62 62
11.781250000000 17.375000000000 8.360992431641 105 105 105
10.437500000000 18.187500000000 9.029998779297 65 65 65
11.781250000000 17.500000000000 8.367980957031 106 106 106
10.468750000000 18.375000000000 9.033996582031 69 69 69
11.781250000000 17.625000000000 8.373992919922 105 105 105
10.468750000000 18.562500000000 9.035980224609 64 64 64
11.781250000000 17.812500000000 8.378997802734 96 96 96
10.468750000000 18.625000000000 9.046997070313 75 75 75
11.781250000000 18.000000000000 8.386993408203 78 78 78
10.468750000000 18.750000000000 9.052978515625 74 74 74
11.343750000000 18.375000000000 9.021972656250 45 45 45
11.781250000000 18.125000000000 8.383972167969 57 57 57
10.468750000000 18.937500000000 9.046997070313 72 72 72
11.343750000000 18.500000000000 9.015991210938 86 86 86
10.468750000000 19.062500000000 9.050994873047 51 51 51
11.343750000000 18.625000000000 9.021972656250 99 99 99
10.406250000000 19.250000000000 9.053985595703 30 30 30
12.687500000000 17.937500000000 8.587982177734 20 20 20
11.343750000000 18.750000000000 9.028991699219 109 109 109
10.468750000000 19.312500000000 9.047973632813 14 14 14
11.343750000000 18.875000000000 9.031982421875 107 107 107
11.343750000000 19.062500000000 9.035980224609 101 101 101
11.343750000000 19.250000000000 9.043975830078 100 100 100
11.343750000000 19.312500000000 9.052978515625 99 99 99
11.375000000000 19.437500000000 9.060974121094 100 100 100
11.375000000000 19.625000000000 9.055999755859 92 92 92
11.406250000000 19.750000000000 9.064971923828 83 83 83
11.343750000000 19.937500000000 9.070983886719 57 57 57
11.781250000000 19.875000000000 8.477996826172 53 53 53
11.781250000000 20.000000000000 8.490997314453 87 87 87
11.781250000000 20.000000000000 8.527984619141 133 133 133
11.781250000000 19.875000000000 8.520996093750 131 131 131
10.468750000000 19.062500000000 9.082977294922 44 44 44
11.812500000000 19.750000000000 8.508972167969 118 118 118
11.343750000000 19.500000000000 9.075988769531 23 23 23
10.468750000000 18.937500000000 9.074981689453 55 55 55
11.812500000000 19.625000000000 8.513000488281 108 108 108
11.343750000000 19.437500000000 9.092987060547 35 35 35
12.687500000000 20.125000000000 8.674987792969 83 83 83
10.468750000000 18.750000000000 9.071990966797 65 65 65
11.843750000000 19.562500000000 8.508972167969 94 94 94
11.343750000000 19.250000000000 9.080993652344 61 61 61
12.750000000000 20.000000000000 8.672973632813 78 78 78
10.468750000000 18.625000000000 9.072998046875 67 67 67
11.843750000000 19.375000000000 8.501983642578 78 78 78
11.343750000000 19.125000000000 9.073974609375 83 83 83
12.687500000000 19.875000000000 8.669982910156 83 83 83
10.468750000000 18.562500000000 9.080993652344 77 77 77
11.843750000000 19.312500000000 8.503997802734 72 72 72
11.343750000000 19.062500000000 9.075988769531 96 96 96
12.687500000000 19.750000000000 8.665985107422 76 76 76
10.406250000000 18.437500000000 9.073974609375 78 78 78
11.843750000000 19.187500000000 8.502990722656 64 64 64
11.343750000000 18.875000000000 9.070983886719 103 103 103
12.718750000000 19.687500000000 8.666992187500 88 88 88
10.468750000000 18.250000000000 9.071990966797 84 84 84
11.781250000000 19.062500000000 8.496978759766 44 44 44
11.343750000000 18.812500000000 9.070983886719 115 115 115
12.718750000000 19.500000000000 8.656982421875 87 87 87
10.406250000000 18.187500000000 9.058990478516 82 82 82
11.843750000000 18.937500000000 8.490997314453 50 50 50
11.343750000000 18.625000000000 9.063995361328 110 110 110
12.718750000000 19.437500000000 8.656982421875 105 105 105
10.406250000000 18.062500000000 9.063995361328 74 74 74
11.781250000000 18.812500000000 8.489990234375 43 43 43
11.343750000000 18.562500000000 9.065979003906 109 109 109
12.718750000000 19.250000000000 8.652984619141 117 117 117
10.437500000000 17.937500000000 9.053985595703 81 81 81
11.343750000000 18.437500000000 9.072998046875 116 116 116
12.718750000000 19.187500000000 8.651977539063 107 107 107
10.437500000000 17.812500000000 9.054992675781 83 83 83
11.281250000000 18.312500000000 9.067993164063 110 110 110
12.718750000000 19.062500000000 8.647979736328 104 104 104
10.406250000000 17.750000000000 9.060974121094 81 81 81
11.406250000000 18.187500000000 9.050994873047 108 108 108
12.656250000000 19.000000000000 8.644989013672 105 105 105
10.437500000000 17.562500000000 9.049987792969 77 77 77
11.343750000000 18.062500000000 9.047973632813 107 107 107
12.718750000000 18.812500000000 8.638000488281 108 108 108
10.468750000000 17.437500000000 9.046997070313 74 74 74
11.343750000000 17.937500000000 9.045989990234 97 97 97
12.718750000000 18.687500000000 8.638977050781 111 111 111
10.468750000000 17.375000000000 9.052001953125 79 79 79
11.406250000000 17.812500000000 9.043975830078 103 103 103
12.656250000000 18.562500000000 8.636993408203 119 119 119
10.468750000000 17.187500000000 9.040985107422 69 69 69
11.343750000000 17.687500000000 9.052978515625 74 74 74
12.750000000000 18.437500000000 8.630981445313 122 122 122
10.468750000000 17.125000000000 9.036987304688 57 57 57
11.343750000000 17.562500000000 9.036987304688 60 60 60
12.687500000000 18.312500000000 8.634979248047 115 115 115
10.468750000000 17.000000000000 9.035980224609 56 56 56
11.343750000000 17.500000000000 9.042999267578 49 49 49
12.687500000000 18.187500000000 8.627990722656 118 118 118
10.406250000000 16.875000000000 9.035980224609 50 50 50
11.343750000000 17.312500000000 9.019989013672 27 27 27
12.687500000000 18.125000000000 8.621978759766 120 120 120
10.468750000000 16.687500000000 9.027984619141 45 45 45
12.718750000000 17.937500000000 8.617980957031 125 125 125
10.406250000000 16.625000000000 9.032989501953 43 43 43
12.718750000000 17.875000000000 8.608978271484 125 125 125
10.406250000000 16.500000000000 9.019989013672 28 28 28
12.718750000000 17.687500000000 8.617980957031 126 126 126
10.468750000000 16.312500000000 9.018981933594 23 23 23
12.718750000000 17.562500000000 8.604980468750 125 125 125
11.812500000000 16.937500000000 8.394989013672 44 44 44
12.718750000000 17.500000000000 8.606994628906 127 127 127
11.750000000000 16.812500000000 8.392974853516 36 36 36
12.718750000000 17.312500000000 8.606994628906 132 132 132
11.781250000000 16.750000000000 8.385986328125 61 61 61
12.718750000000 17.250000000000 8.599975585938 130 130 130
11.781250000000 16.625000000000 8.370971679688 69 69 69
12.718750000000 17.125000000000 8.598999023438 137 137 137
11.781250000000 16.437500000000 8.367980957031 89 89 89
12.718750000000 17.000000000000 8.598999023438 131 131 131
11.781250000000 16.375000000000 8.371978759766 107 107 107
12.718750000000 16.812500000000 8.595001220703 131 131 131
11.781250000000 16.250000000000 8.362976074219 111 111 111
12.656250000000 16.750000000000 8.595977783203 133 133 133
11.781250000000 16.125000000000 8.365997314453 121 121 121
12.718750000000 16.625000000000 8.593994140625 139 139 139
11.781250000000 16.000000000000 8.358001708984 121 121 121
12.656250000000 16.500000000000 8.582977294922 137 137 137
11.781250000000 15.875000000000 8.361999511719 123 123 123
12.656250000000 16.375000000000 8.587982177734 140 140 140
11.781250000000 15.750000000000 8.351989746094 122 122 122
11.281250000000 15.500000000000 8.945983886719 33 33 33
12.718750000000 16.250000000000 8.582000732422 141 141 141
11.812500000000 15.625000000000 8.348999023438 125 125 125
11.281250000000 15.375000000000 8.938995361328 36 36 36
12.687500000000 16.125000000000 8.579986572266 139 139 139
11.812500000000 15.562500000000 8.342987060547 126 126 126
11.281250000000 15.250000000000 8.934997558594 70 70 70
12.687500000000 16.000000000000 8.579986572266 142 142 142
11.812500000000 15.375000000000 8.346984863281 124 124 124
11.312500000000 15.125000000000 8.931976318359 57 57 57
12.687500000000 15.937500000000 8.570983886719 136 136 136
11.781250000000 15.312500000000 8.343994140625 122 122 122
11.312500000000 15.000000000000 8.931976318359 66 66 66
12.718750000000 15.750000000000 8.566986083984 131 131 131
11.843750000000 15.125000000000 8.338989257813 124 124 124
11.312500000000 14.875000000000 8.927978515625 102 102 102
12.718750000000 15.625000000000 8.564971923828 134 134 134
11.781250000000 15.062500000000 8.333984375000 119 119 119
11.343750000000 14.750000000000 8.928985595703 100 100 100
12.718750000000 15.562500000000 8.562988281250 137 137 137
11.781250000000 14.937500000000 8.332977294922 128 128 128
11.343750000000 14.625000000000 8.924987792969 99 99 99
12.718750000000 15.437500000000 8.564971923828 124 124 124
11.843750000000 14.750000000000 8.326995849609 114 114 114
11.281250000000 14.562500000000 8.922973632813 106 106 106
12.718750000000 15.250000000000 8.559997558594 132 132 132
11.781250000000 14.687500000000 8.322998046875 112 112 112
11.343750000000 14.375000000000 8.919982910156 108 108 108
12.656250000000 15.250000000000 8.558990478516 132 132 132
11.781250000000 14.562500000000 8.323974609375 115 115 115
11.281250000000 14.250000000000 8.920989990234 113 113 113
12.718750000000 15.062500000000 8.558990478516 119 119 119
11.781250000000 14.437500000000 8.321990966797 109 109 109
11.281250000000 14.187500000000 8.917999267578 110 110 110
12.718750000000 14.875000000000 8.559997558594 135 135 135
11.781250000000 14.312500000000 8.317993164063 110 110 110
11.281250000000 14.062500000000 8.915985107422 113 113 113
12.656250000000 14.812500000000 8.554992675781 116 116 116
11.781250000000 14.187500000000 8.310974121094 95 95 95
11.281250000000 13.875000000000 8.912994384766 109 109 109
12.718750000000 14.625000000000 8.554992675781 117 117 117
11.781250000000 14.062500000000 8.309997558594 87 87 87
11.281250000000 13.812500000000 8.904998779297 107 107 107
12.656250000000 14.562500000000 8.545989990234 108 108 108
11.812500000000 14.000000000000 8.306976318359 83 83 83
11.281250000000 13.687500000000 8.901000976563 100 100 100
12.656250000000 14.437500000000 8.547973632813 113 113 113
11.812500000000 13.812500000000 8.298980712891 65 65 65
11.281250000000 13.500000000000 8.898986816406 88 88 88
12.656250000000 14.375000000000 8.541992187500 108 108 108
11.750000000000 13.750000000000 8.303985595703 69 69 69
11.281250000000 13.437500000000 8.894989013672 76 76 76
12.656250000000 14.187500000000 8.543975830078 100 100 100
11.812500000000 13.562500000000 8.302978515625 61 61 61
11.281250000000 13.312500000000 8.895996093750 71 71 71
12.687500000000 14.062500000000 8.531982421875 92 92 92
11.812500000000 13.437500000000 8.306976318359 58 58 58
11.312500000000 13.187500000000 8.893981933594 58 58 58
12.687500000000 13.937500000000 8.528991699219 79 79 79
11.781250000000 13.375000000000 8.295989990234 40 40 40
11.281250000000 13.000000000000 8.897979736328 54 54 54
12.687500000000 13.875000000000 8.530975341797 72 72 72
11.843750000000 13.187500000000 8.299987792969 41 41 41
11.250000000000 13.000000000000 8.892974853516 32 32 32
12.687500000000 13.687500000000 8.524993896484 63 63 63
11.781250000000 13.125000000000 8.296997070313 43 43 43
11.281250000000 12.812500000000 8.896972656250 32 32 32
12.687500000000 13.562500000000 8.529998779297 55 55 55
11.781250000000 13.000000000000 8.287994384766 59 59 59
11.250000000000 12.687500000000 8.890991210938 46 46 46
11.781250000000 12.875000000000 8.289978027344 30 30 30
12.687500000000 13.312500000000 8.523986816406 34 34 34
10.406250000000 12.000000000000 8.858978271484 21 21 21
12.656250000000 13.250000000000 8.524993896484 27 27 27
10.406250000000 11.875000000000 8.858978271484 21 21 21
12.718750000000 13.062500000000 8.516998291016 26 26 26
10.437500000000 11.750000000000 8.855987548828 36 36 36
10.406250000000 11.562500000000 8.863983154297 36 36 36
10.375000000000 11.562500000000 8.847991943359 36 36 36
10.437500000000 11.375000000000 8.843994140625 19 19 19
10.437500000000 11.187500000000 8.841979980469 21 21 21
10.375000000000 11.125000000000 8.845977783203 32 32 32
10.437500000000 11.000000000000 8.847991943359 37 37 37
10.406250000000 10.875000000000 8.835998535156 34 34 34
10.406250000000 10.750000000000 8.839996337891 29 29 29
10.406250000000 10.687500000000 8.845001220703 41 41 41
10.406250000000 10.500000000000 8.834991455078 52 52 52
10.406250000000 10.375000000000 8.834991455078 45 45 45
10.406250000000 10.312500000000 8.840972900391 65 65 65
10.406250000000 10.187500000000 8.833984375000 50 50 50
10.406250000000 10.000000000000 8.824981689453 62 62 62
10.437500000000 9.937500000000 8.819000244141 53 53 53
12.718750000000 11.125000000000 8.514984130859 41 41 41
10.437500000000 9.812500000000 8.819976806641 55 55 55
12.656250000000 11.000000000000 8.524993896484 63 63 63
10.437500000000 9.625000000000 8.811981201172 55 55 55
12.656250000000 10.937500000000 8.515991210938 68 68 68
10.375000000000 9.562500000000 8.817993164063 56 56 56
12.656250000000 10.812500000000 8.514984130859 76 76 76
10.437500000000 9.437500000000 8.806976318359 60 60 60
12.656250000000 10.625000000000 8.511993408203 88 88 88
10.375000000000 9.312500000000 8.809997558594 60 60 60
12.656250000000 10.562500000000 8.504974365234 93 93 93
10.406250000000 9.187500000000 8.811981201172 71 71 71
12.656250000000 10.437500000000 8.519989013672 100 100 100
10.406250000000 9.125000000000 8.819000244141 72 72 72
